ply
format ascii 1.0
comment VCGLIB generated
element vertex 631
property float x
property float y
property float z
property float nx
property float ny
property float nz
property uchar red
property uchar green
property uchar blue
property uchar alpha
element face 0
property list uchar int vertex_indices
end_header
0.00468152 0.184957 -0.263849 0.280869 0.700023 -0.656568 255 255 255 255 
-0.0354972 0.157583 0.210401 -0.997904 0.0614731 0.0201964 255 255 255 255 
-0.0991195 0.0638675 -0.0329103 -0.951954 -0.28378 0.115123 255 255 255 255 
-0.0918856 0.0908577 0.0448952 -0.995915 0.0184792 0.0883798 255 255 255 255 
-0.0950857 0.0475809 -0.0873191 -0.841001 -0.516256 -0.161855 255 255 255 255 
-0.000272585 0.0882292 -0.252611 0.275389 -0.941772 -0.192942 255 255 255 255 
-0.0134166 -0.00518377 -0.0936848 -0.0884619 -0.97917 -0.182758 255 255 255 255 
0.018073 0.237527 0.000529582 0.562944 0.699029 0.440967 255 255 255 255 
0.107588 0.132766 -0.0827349 0.97952 0.188113 -0.0717929 255 255 255 255 
-0.0307365 -0.130214 -0.306251 0.0380453 -0.172855 0.984212 255 255 255 255 
-0.0350136 0.0935263 0.160746 -0.85357 -0.380924 0.355409 255 255 255 255 
0.0895924 0.0437651 -0.209053 0.874467 -0.274614 0.399867 255 255 255 255 
-0.0660243 0.147666 -0.25847 -0.653201 0.446089 -0.611827 255 255 255 255 
0.075637 0.111585 -0.262733 0.716413 0.226345 -0.65994 255 255 255 255 
0.0618085 -0.338321 0.0796269 -0.218664 0.157312 0.963036 255 255 255 255 
0.0162061 0.209047 0.25586 0.784646 -0.0175993 0.619694 255 255 255 255 
0.106897 0.138331 -0.0740352 0.974986 0.219278 -0.0363168 255 255 255 255 
0.0667819 -0.325434 0.055435 0.393863 0.859689 0.325279 255 255 255 255 
0.0756435 0.0653793 0.0833036 0.877042 -0.226556 0.423638 255 255 255 255 
-0.0441671 0.310447 0.228154 -0.996339 0.0376493 -0.0767499 255 255 255 255 
-0.0805428 0.0758484 -0.172103 -0.886036 -0.290219 0.361542 255 255 255 255 
-0.0579495 0.240756 -0.11617 -0.872719 0.43481 -0.222041 255 255 255 255 
-0.0243873 -0.0555583 -0.301605 -0.732775 0.129151 -0.668103 255 255 255 255 
0.0700453 0.0698533 -0.165023 0.879081 -0.293404 -0.375674 255 255 255 255 
-0.0154772 -0.174459 -0.337586 -0.783202 -0.106075 -0.612653 255 255 255 255 
0.0519988 0.130479 -0.274484 0.552573 0.341536 -0.760274 255 255 255 255 
-0.0251356 0.251737 -0.153169 -0.561846 0.555977 -0.61255 255 255 255 255 
-0.0744339 0.0132087 -0.269791 -0.788744 -0.0266582 -0.614143 255 255 255 255 
-0.0612687 0.241003 -0.100745 -0.889645 0.429013 -0.156458 255 255 255 255 
-0.0334561 0.152043 0.137762 -0.567579 0.519928 0.63838 255 255 255 255 
-0.0919035 0.0394755 -0.0721619 -0.829464 -0.553005 -0.0785789 255 255 255 255 
0.0738972 0.160203 0.0196079 0.91652 0.386086 0.104545 255 255 255 255 
0.0492116 0.0373167 -0.158692 0.328302 -0.770846 -0.545908 255 255 255 255 
0.0622358 0.18097 0.0626933 0.866495 0.479292 0.139518 255 255 255 255 
0.0723354 0.0771626 -0.178072 0.933014 -0.256796 -0.252074 255 255 255 255 
0.0163079 -0.053982 -0.274797 -0.834684 -0.292359 0.46672 255 255 255 255 
-0.0836172 0.0580818 -0.192794 -0.857988 -0.302459 0.415181 255 255 255 255 
-0.0731179 0.15724 0.0198624 -0.924114 0.366179 0.109211 255 255 255 255 
0.0352707 0.330782 0.251702 0.90868 0.219016 0.355434 255 255 255 255 
-0.0159744 -0.2103 -0.332551 0.235459 -0.247166 -0.93993 255 255 255 255 
0.068926 0.219637 -0.0864938 0.893204 0.446837 0.0502401 255 255 255 255 
0.0538266 0.167138 -0.252051 0.544068 0.581238 -0.605106 255 255 255 255 
-0.0746019 0.0124644 0.0419044 -0.950081 -0.2677 0.160256 255 255 255 255 
-0.00712642 0.179023 0.127385 -0.340225 0.628561 0.699398 255 255 255 255 
-0.032271 -0.147298 0.0189688 -0.686316 -0.173815 0.706229 255 255 255 255 
0.0252142 0.053679 -0.215158 -0.892072 -0.205139 0.402647 255 255 255 255 
-0.0402847 0.200968 0.0811811 -0.698386 0.621245 0.355403 255 255 255 255 
0.0151952 0.262437 -0.0255582 0.361976 0.718021 0.59449 255 255 255 255 
-0.0407847 0.28966 0.246288 -0.998448 -0.0521754 0.0194981 255 255 255 255 
-0.0197853 -0.0730087 0.0178519 0.985939 0.0736893 -0.149979 255 255 255 255 
-0.00563018 -0.10364 0.0292793 -0.312758 -0.25289 0.915548 255 255 255 255 
0.0928181 0.0990958 -0.190306 0.998403 -0.0559648 -0.00768748 255 255 255 255 
0.0806512 0.161549 -0.218529 0.854569 0.462174 -0.236868 255 255 255 255 
0.0911579 0.0209557 -0.232189 0.979338 -0.166577 -0.114671 255 255 255 255 
-0.0602068 0.182939 -0.221591 -0.615844 0.694092 -0.37279 255 255 255 255 
0.0300107 -0.309258 0.0201686 -0.0855773 -0.297225 -0.950965 255 255 255 255 
-0.0640241 0.00364228 -0.279475 -0.703473 0.0049013 -0.710705 255 255 255 255 
-0.070221 0.000880938 0.0506326 -0.921013 -0.254332 0.295042 255 255 255 255 
0.0466067 0.227081 -0.0259445 0.753202 0.562917 0.34031 255 255 255 255 
0.0235876 -0.00926223 0.0650544 -0.201485 -0.354745 0.912995 255 255 255 255 
0.0111863 0.241599 -0.167594 0.409332 0.614703 -0.674231 255 255 255 255 
-0.0121503 0.166049 0.16402 -0.193351 0.728551 -0.657137 255 255 255 255 
0.0523585 0.241191 -0.131818 0.797834 0.487047 -0.35531 255 255 255 255 
-0.043839 -0.0792588 0.0433998 -0.619245 -0.339915 0.707809 255 255 255 255 
0.106019 0.0712837 -0.0766665 0.949811 -0.302899 -0.0781755 255 255 255 255 
-0.00959707 0.0291839 0.110193 -0.200722 -0.690328 0.695095 255 255 255 255 
0.011278 -0.334353 -0.263085 -0.254494 -0.963756 0.0800441 255 255 255 255 
-0.00625475 0.207257 0.100582 -0.107171 0.70069 0.705371 255 255 255 255 
-0.0901256 0.0918412 0.00807785 -0.995784 0.0078567 0.0913869 255 255 255 255 
-0.0377091 -0.0517156 -0.246313 0.30584 -0.541755 0.78292 255 255 255 255 
0.0241051 -0.146778 -0.311332 0.166017 -0.163996 0.972391 255 255 255 255 
-0.00992908 -0.253041 -0.313151 0.700172 0.142434 0.699622 255 255 255 255 
0.0234799 -0.042894 0.0549794 -0.198012 -0.311969 0.929229 255 255 255 255 
-0.0630099 0.0636312 -0.17043 -0.807285 -0.375273 -0.45548 255 255 255 255 
0.0439546 -0.0571743 -0.303542 0.859963 -0.0492599 -0.507973 255 255 255 255 
0.103891 0.0734909 -0.0947289 0.940069 -0.293128 -0.1742 255 255 255 255 
0.023105 -0.337408 -0.267628 -0.253936 -0.964257 0.0756614 255 255 255 255 
-0.0894287 0.124049 -0.155533 -0.986725 -0.0520056 0.153851 255 255 255 255 
-0.0793328 0.195077 -0.0734622 -0.893585 0.445063 0.0585159 255 255 255 255 
0.0205932 -0.00617986 -0.0771447 0.144101 -0.985153 -0.0933188 255 255 255 255 
-0.0994431 0.0666126 -0.109654 -0.890275 -0.320438 -0.323621 255 255 255 255 
-0.0706099 -0.00105162 0.0357634 -0.970978 -0.238265 0.0207756 255 255 255 255 
0.00851547 0.341203 0.210341 0.0686238 0.990001 -0.123246 255 255 255 255 
-0.0106967 0.146589 -0.290339 -0.436367 0.383476 -0.81396 255 255 255 255 
0.0151096 -0.0103738 0.0461885 -0.939501 -0.105874 -0.325774 255 255 255 255 
-0.074089 0.0706996 0.0879505 -0.868893 -0.206655 0.449799 255 255 255 255 
0.0228108 0.0626236 -0.216253 -0.897281 -0.212939 0.386709 255 255 255 255 
0.0274174 0.298453 0.191668 0.850334 -0.0348971 -0.525085 255 255 255 255 
0.0474752 0.0540567 0.109345 0.529953 -0.498515 0.686027 255 255 255 255 
-0.0303958 -0.231701 0.0120862 -0.898255 0.0859628 -0.430986 255 255 255 255 
-0.000717333 -0.112104 -0.308201 -0.968418 0.197373 -0.152348 255 255 255 255 
0.0053206 0.0370303 -0.268633 -0.956948 -0.12832 0.260356 255 255 255 255 
-0.0606466 0.00951042 -0.0275437 -0.444019 -0.892218 0.0824288 255 255 255 255 
0.0902306 0.0643015 -0.202672 0.988621 -0.145845 0.0368595 255 255 255 255 
0.0169419 0.228236 -0.174711 0.514518 0.670051 -0.535072 255 255 255 255 
-0.0165275 0.301237 -0.120444 -0.60665 0.714833 -0.347835 255 255 255 255 
-0.0552088 0.00551468 -0.0371932 -0.429429 -0.900818 0.0641691 255 255 255 255 
0.0377612 -0.120769 0.0117087 0.729228 -0.0883179 -0.678547 255 255 255 255 
0.0471957 0.027771 -0.148264 0.346552 -0.791114 -0.504024 255 255 255 255 
0.0703148 0.054642 0.0860528 0.833659 -0.283619 0.473892 255 255 255 255 
-0.0122173 0.344348 0.244113 -0.180764 0.965434 0.187782 255 255 255 255 
-0.0903661 0.0593511 0.0372453 -0.988821 -0.148949 0.00681515 255 255 255 255 
0.0949355 0.0490553 -0.0350447 0.919891 -0.373154 0.120649 255 255 255 255 
0.0713106 0.179581 -0.192913 0.806379 0.563909 -0.17821 255 255 255 255 
0.0219334 0.199035 0.250033 0.806134 -0.0267247 0.591129 255 255 255 255 
0.0356829 0.154435 0.217278 0.957172 -0.0926305 0.274301 255 255 255 255 
-0.0431659 0.260892 -0.0615438 -0.756132 0.562402 0.334617 255 255 255 255 
-0.0766154 0.0621562 -0.185402 -0.629689 -0.516526 0.580252 255 255 255 255 
0.0132488 0.00171498 0.0665975 -0.215326 -0.367808 0.904628 255 255 255 255 
-0.000830223 -0.145049 -0.310164 0.173515 -0.140457 0.974764 255 255 255 255 
-0.0167607 -0.0914579 0.0266454 0.995017 0.0918174 -0.0388799 255 255 255 255 
0.0128749 0.0222884 -0.291224 -0.514571 0.0915916 -0.852542 255 255 255 255 
0.100437 0.117493 -0.0207711 0.983282 0.0539034 0.173929 255 255 255 255 
0.0816221 0.0613986 -0.139056 0.853088 -0.365538 -0.372321 255 255 255 255 
-0.00540165 0.00197824 0.0365295 0.0538348 -0.985275 0.162278 255 255 255 255 
-0.0590191 0.190222 -0.199855 -0.625531 0.723894 -0.291013 255 255 255 255 
0.0125893 -0.218839 0.0232507 -0.451846 -0.0674678 0.889541 255 255 255 255 
-0.0884489 0.0596079 0.0551601 -0.940529 -0.203248 0.272204 255 255 255 255 
0.0740155 0.189257 -0.130349 0.873836 0.446599 -0.192247 255 255 255 255 
-0.0270262 0.238867 0.207759 -0.990664 0.0164552 -0.135333 255 255 255 255 
-0.0616068 -0.301852 -0.302537 -0.630055 -0.0719008 -0.773215 255 255 255 255 
-0.0817939 0.0291737 -0.0332799 -0.79756 -0.599069 0.0708181 255 255 255 255 
0.0425353 0.167826 -0.259388 0.48656 0.577508 -0.655549 255 255 255 255 
0.030005 -0.270728 0.0330257 0.770748 0.352765 0.53057 255 255 255 255 
0.0861599 0.0798049 -0.141415 0.906559 -0.263884 -0.329419 255 255 255 255 
-0.082506 0.0657556 -0.259781 -0.911736 0.00144036 -0.410774 255 255 255 255 
-0.0442443 -0.342393 0.0600008 -0.048843 -0.997564 0.0497967 255 255 255 255 
0.0121849 -0.283297 -0.295705 0.349886 0.37089 0.860245 255 255 255 255 
0.08325 0.0713946 -0.14215 0.885922 -0.298048 -0.3554 255 255 255 255 
-0.00614342 -0.332888 -0.277316 -0.242351 -0.966886 0.0799824 255 255 255 255 
-0.034603 0.163905 0.194965 -0.994458 0.104496 -0.0115907 255 255 255 255 
-0.0153466 -0.0122549 0.0489345 0.973496 0.00407971 -0.228669 255 255 255 255 
0.0068559 0.153506 -0.288991 0.427032 0.422114 -0.799664 255 255 255 255 
0.0891649 0.173748 -0.0975661 0.91221 0.402014 -0.0791036 255 255 255 255 
0.0357091 0.137562 0.209066 0.972813 -0.0695661 0.220898 255 255 255 255 
-0.00195858 -0.0762784 -0.318434 0.956282 0.10487 -0.272996 255 255 255 255 
-0.0894765 0.105879 0.0469015 -0.990519 0.117152 0.0717444 255 255 255 255 
-0.107963 0.0980693 -0.0425199 -0.990515 -0.0348049 0.13292 255 255 255 255 
-0.0250464 -0.262747 -0.321465 0.57535 -0.234709 -0.783507 255 255 255 255 
0.0371268 0.0564952 0.118854 0.511071 -0.52014 0.684296 255 255 255 255 
0.00102732 0.0957705 0.206247 0.0742854 -0.803138 0.591143 255 255 255 255 
0.0396702 0.0239363 -0.296641 0.473575 0.0272863 -0.880331 255 255 255 255 
0.0417113 0.0193012 0.0852405 0.36166 -0.588662 0.722965 255 255 255 255 
0.0279981 0.128151 0.220044 0.851349 -0.310432 0.422892 255 255 255 255 
-0.0184159 0.0536745 -0.29469 -0.541368 0.0619953 -0.838497 255 255 255 255 
0.0771046 0.0232427 -0.00753266 0.641862 -0.757811 0.117199 255 255 255 255 
-0.0876515 0.0473628 -0.0146368 -0.913554 -0.398125 0.0831645 255 255 255 255 
0.0871478 0.0430905 -0.104525 0.811761 -0.539442 -0.223712 255 255 255 255 
-0.00813282 0.242526 0.0477375 -0.389314 0.914531 0.109856 255 255 255 255 
-0.0801489 0.123802 -0.254256 -0.829576 0.25482 -0.49686 255 255 255 255 
0.0218779 -0.0562014 0.0252471 -0.876312 0.0313151 -0.480725 255 255 255 255 
0.0793277 0.194273 -0.095268 0.897459 0.438296 -0.0496389 255 255 255 255 
-0.0272664 -0.121034 0.0260559 -0.503893 -0.24056 0.829592 255 255 255 255 
-0.0019104 -0.125196 -0.336476 -0.882713 0.258866 -0.392181 255 255 255 255 
-0.030457 0.232641 -0.0089866 -0.743008 0.60746 0.280948 255 255 255 255 
-0.0385064 -0.339042 0.0226204 -0.442871 -0.232364 -0.865952 255 255 255 255 
0.0313699 -0.0452576 0.0101994 -0.912787 -0.0385099 -0.406617 255 255 255 255 
-0.0103234 -0.172192 0.00370473 -0.991357 -0.0631586 0.114985 255 255 255 255 
0.0772047 0.0710959 -0.152858 0.872616 -0.302187 -0.383699 255 255 255 255 
-0.0368992 -0.34231 0.0449739 -0.0156129 -0.999659 0.0209385 255 255 255 255 
-0.0952533 0.146178 -0.0300101 -0.933659 0.30062 0.194702 255 255 255 255 
-0.0789658 0.170646 -0.188716 -0.847399 0.503724 -0.167861 255 255 255 255 
0.0258707 0.242044 -0.0140678 0.574547 0.663859 0.478735 255 255 255 255 
0.0242997 -0.0227484 0.0605204 -0.268987 -0.317558 0.909287 255 255 255 255 
0.0867196 0.0816306 0.0692563 0.935094 -0.129587 0.329859 255 255 255 255 
0.0476931 0.269905 -0.0784405 0.793417 0.58443 0.170094 255 255 255 255 
0.0249276 0.293397 -0.0721572 0.649114 0.735824 0.19291 255 255 255 255 
0.0161367 -0.208677 -0.327804 0.297014 -0.218127 -0.929625 255 255 255 255 
-0.0462835 0.0488551 -0.171689 -0.196615 -0.82518 -0.529547 255 255 255 255 
-0.0519827 0.209922 -0.153544 -0.757037 0.559018 -0.338222 255 255 255 255 
-0.00826048 0.303648 0.179744 0.0676022 -0.111286 -0.991486 255 255 255 255 
0.0710628 0.211801 -0.078038 0.89016 0.448765 0.0788986 255 255 255 255 
-0.0308293 0.0964706 -0.291841 -0.511882 0.162948 -0.84346 255 255 255 255 
0.00677713 0.342123 0.268252 -0.0420113 0.979122 0.198884 255 255 255 255 
-0.0543065 0.249002 -0.0705628 -0.812266 0.521105 0.262056 255 255 255 255 
0.0669071 0.140394 0.113007 0.798429 0.313558 0.513997 255 255 255 255 
0.0870811 0.0529132 0.00457659 0.960475 -0.240015 0.140996 255 255 255 255 
0.0705195 0.207496 -0.0620014 0.876374 0.460208 0.142047 255 255 255 255 
0.0889093 0.0643608 0.0190063 0.981466 -0.1719 0.0847025 255 255 255 255 
-0.0740589 0.0208955 -0.0263485 -0.755065 -0.6511 0.0771137 255 255 255 255 
0.0913953 0.140844 -0.199837 0.95619 0.277604 -0.0929327 255 255 255 255 
-0.0293558 0.0581217 -0.187445 -0.0994285 -0.808385 -0.580196 255 255 255 255 
-0.0812452 0.0380959 0.00929217 -0.939127 -0.342844 0.0223196 255 255 255 255 
-0.0861065 0.145352 -0.224963 -0.875724 0.367952 -0.3126 255 255 255 255 
-0.0648776 0.116811 -0.273232 -0.664504 0.253131 -0.703106 255 255 255 255 
-0.0347224 0.297646 0.27446 -0.837516 0.372815 0.399469 255 255 255 255 
0.00941891 0.304986 -0.112738 0.535045 0.84479 -0.0075919 255 255 255 255 
-0.05542 -0.00432713 0.0717685 0.122461 -0.396312 0.909912 255 255 255 255 
-0.0114869 0.172158 0.17101 -0.0724452 0.795801 -0.601209 255 255 255 255 
-0.0413707 0.118461 0.163737 -0.957767 -0.143621 0.249109 255 255 255 255 
0.0356982 0.27577 0.23129 0.941119 -0.155944 0.299962 255 255 255 255 
0.0261168 0.0133131 0.0869205 0.281051 -0.648128 0.707772 255 255 255 255 
-0.0346316 0.201405 0.090546 -0.632664 0.637834 0.439207 255 255 255 255 
0.0691437 0.0662681 0.0967263 0.829194 -0.267152 0.490985 255 255 255 255 
-0.0959403 0.109907 -0.218378 -0.96027 0.135856 -0.243772 255 255 255 255 
0.0686412 0.17199 0.0658128 0.870365 0.460241 0.17505 255 255 255 255 
-0.0866534 0.11427 0.033162 -0.9852 0.154972 0.073249 255 255 255 255 
-0.0515852 0.173944 -0.24778 -0.54781 0.641943 -0.536483 255 255 255 255 
0.0178264 0.0364274 -0.295847 -0.528444 0.0684582 -0.846204 255 255 255 255 
-0.0763552 0.186256 -0.0402076 -0.866513 0.461751 0.189582 255 255 255 255 
0.0135339 0.221571 0.255952 0.736804 -0.0181885 0.675862 255 255 255 255 
0.0318178 0.270731 0.205317 0.798359 -0.0471269 -0.600334 255 255 255 255 
-0.0639367 0.192742 -0.154955 -0.808986 0.54451 -0.221471 255 255 255 255 
-0.0599054 0.0507644 0.0978857 -0.557807 -0.497357 0.664445 255 255 255 255 
0.110642 0.0972314 -0.0873078 0.989047 -0.100776 -0.107846 255 255 255 255 
-0.0957226 0.0995766 -0.00962607 -0.983366 0.0328515 0.178638 255 255 255 255 
-0.0573307 0.112055 0.126625 -0.867284 -0.0856806 0.490384 255 255 255 255 
-0.0183986 0.237732 0.0492251 -0.65294 0.734799 0.183685 255 255 255 255 
0.0672567 0.145661 -0.256532 0.630745 0.425062 -0.649217 255 255 255 255 
0.00829607 -0.00234361 -0.0371438 0.0333673 -0.995397 0.0898367 255 255 255 255 
-0.0487602 0.205293 -0.168325 -0.692529 0.646482 -0.3201 255 255 255 255 
-0.0395737 0.29536 0.216951 -0.911061 -0.101508 -0.399579 255 255 255 255 
-0.0395419 0.264719 -0.133266 -0.65166 0.542426 -0.530201 255 255 255 255 
-0.0842863 0.0488992 -0.123469 -0.800429 -0.482375 -0.355848 255 255 255 255 
0.0858241 0.0378373 -0.0142229 0.920016 -0.359805 0.155275 255 255 255 255 
-0.0556377 0.199216 -0.00657873 -0.82642 0.532561 0.182782 255 255 255 255 
0.0626083 0.182215 0.0481248 0.864812 0.48362 0.134949 255 255 255 255 
-0.0117799 -0.0361723 -0.283971 0.956963 -0.174188 0.232123 255 255 255 255 
-0.0383978 0.309695 0.21023 -0.905867 -0.112966 -0.40822 255 255 255 255 
0.0465174 0.197735 0.0738037 0.745931 0.588126 0.312561 255 255 255 255 
0.0219123 0.33767 0.264833 0.851537 0.355012 0.385812 255 255 255 255 
0.0832511 0.0867428 -0.151801 0.922298 -0.224162 -0.314831 255 255 255 255 
-0.0258129 0.161056 0.134898 -0.489332 0.571403 0.658827 255 255 255 255 
0.0399801 0.218151 0.0265919 0.752141 0.636747 0.169816 255 255 255 255 
0.0470143 0.123749 0.143159 0.816943 0.0183595 0.576427 255 255 255 255 
0.0858682 0.136458 -0.240458 0.823079 0.328136 -0.463538 255 255 255 255 
0.0353739 0.171966 0.213795 0.994081 0.0461912 0.0983354 255 255 255 255 
-0.0725285 0.0335666 -0.188305 -0.801453 -0.34852 0.486012 255 255 255 255 
0.0885094 0.147734 -0.208854 0.940769 0.312892 -0.13058 255 255 255 255 
0.0346545 0.0261214 -0.152297 0.235182 -0.810462 -0.536508 255 255 255 255 
0.0356411 0.0763618 0.136614 0.666904 -0.435134 0.604895 255 255 255 255 
-0.0747026 0.0772821 -0.270291 -0.730738 0.0906985 -0.676607 255 255 255 255 
-0.000274172 -0.0852592 -0.310761 0.994025 0.0317755 -0.104422 255 255 255 255 
0.061726 0.141924 0.118767 0.783866 0.315078 0.535051 255 255 255 255 
0.0257295 0.0808001 0.162409 0.413517 -0.692678 0.590932 255 255 255 255 
0.0874561 0.0486046 -0.114732 0.827056 -0.491338 -0.273066 255 255 255 255 
-0.0727314 0.118599 0.107917 -0.87404 0.0080756 0.485786 255 255 255 255 
-0.0474717 0.000287541 -0.0714264 -0.398558 -0.914183 -0.0736217 255 255 255 255 
0.0227836 0.134902 0.234632 0.838516 -0.302556 0.453156 255 255 255 255 
0.0481543 0.262758 -0.0680229 0.798187 0.556321 0.231095 255 255 255 255 
-0.0221932 0.243544 -0.159865 -0.57107 0.571409 -0.589382 255 255 255 255 
-0.0819537 0.143746 0.00234449 -0.942265 0.28874 0.169605 255 255 255 255 
0.0569092 0.214207 -0.143376 0.801972 0.499004 -0.328385 255 255 255 255 
0.0912992 0.0876601 0.0110702 0.989887 -0.0612512 0.12795 255 255 255 255 
-0.0484458 0.0955197 0.133523 -0.866156 -0.236015 0.440535 255 255 255 255 
0.00303297 -0.0076334 -0.0652754 0.0267318 -0.999425 -0.0208532 255 255 255 255 
-0.0315047 0.253104 0.248309 -0.998815 -0.043373 -0.022063 255 255 255 255 
-0.000133986 -0.232656 -0.317459 -0.71814 -0.162186 -0.676735 255 255 255 255 
0.0188381 -0.0342915 -0.306044 -0.46812 0.242503 -0.849739 255 255 255 255 
-0.0897355 0.0946736 0.0235727 -0.997733 0.0416388 0.0528647 255 255 255 255 
-0.0321519 0.194904 0.223912 -0.988359 0.0927766 -0.120574 255 255 255 255 
0.00745515 0.221639 0.189369 0.435638 0.0583486 -0.898229 255 255 255 255 
-0.0368319 0.149249 -0.277142 -0.486988 0.439539 -0.75475 255 255 255 255 
-0.0254987 0.0053078 -0.226628 0.823257 -0.24877 0.510255 255 255 255 255 
-0.0199371 0.120776 0.22607 -0.81593 -0.372105 0.442489 255 255 255 255 
-0.0288581 0.175676 -0.262596 -0.430363 0.625924 -0.65039 255 255 255 255 
-0.101252 0.152579 -0.0662617 -0.941739 0.33377 0.041529 255 255 255 255 
-0.0210161 0.233267 0.0586059 -0.661418 0.714973 0.226582 255 255 255 255 
0.00500157 0.32282 0.178499 0.0573538 -0.0965363 -0.993676 255 255 255 255 
0.106289 0.0756718 -0.0473594 0.968396 -0.233126 0.0886653 255 255 255 255 
-0.080836 0.188521 -0.105959 -0.899963 0.416066 -0.130212 255 255 255 255 
-0.0331652 0.0986459 0.17396 -0.851869 -0.386603 0.353351 255 255 255 255 
-0.0614748 0.244708 -0.0906621 -0.887266 0.460734 -0.0219741 255 255 255 255 
-0.0880201 0.0186689 -0.235771 -0.977927 -0.192502 -0.0812468 255 255 255 255 
0.00420547 0.0103846 0.0895394 0.118844 -0.758185 0.641117 255 255 255 255 
-0.0868519 0.122394 0.0537843 -0.973597 0.215392 0.0756003 255 255 255 255 
-0.0730945 0.156142 0.0307926 -0.924751 0.372648 0.0772641 255 255 255 255 
0.091188 0.138485 -0.216123 0.950272 0.267045 -0.16022 255 255 255 255 
0.0532796 -0.0471901 -0.245872 0.511995 -0.626257 0.587931 255 255 255 255 
-0.0813954 0.0339995 0.0258191 -0.961704 -0.273607 0.0162397 255 255 255 255 
-0.0860477 0.155967 -0.163807 -0.918024 0.382381 -0.104961 255 255 255 255 
-0.0965893 0.103621 -0.195574 -0.977634 -0.133052 0.162875 255 255 255 255 
0.0241325 0.237886 0.243609 0.73822 -0.0378068 0.6735 255 255 255 255 
0.07425 0.152504 0.0924315 0.836401 0.372547 0.402048 255 255 255 255 
0.0927565 0.129034 -0.224173 0.952724 0.219472 -0.210118 255 255 255 255 
-0.0667983 -0.0348101 -0.269584 -0.841116 -0.0455718 -0.538932 255 255 255 255 
-0.00958341 0.00344952 -0.00749058 -0.0131939 -0.993215 0.115539 255 255 255 255 
-0.0536409 0.2519 -0.119814 -0.83178 0.464532 -0.303896 255 255 255 255 
-0.0941804 0.138638 -0.191586 -0.949062 0.288475 -0.126746 255 255 255 255 
-0.0593294 0.191919 -0.000220326 -0.844057 0.511201 0.161992 255 255 255 255 
0.0569133 0.0407622 -0.165253 0.762272 -0.327118 0.558512 255 255 255 255 
0.0902027 0.0769766 -0.196779 0.992355 -0.123318 -0.0048942 255 255 255 255 
-0.0571598 0.205641 -0.025088 -0.820319 0.520584 0.236791 255 255 255 255 
-0.0175099 0.205958 -0.22367 -0.36097 0.835604 -0.414085 255 255 255 255 
-0.0698293 0.219215 -0.0878975 -0.898508 0.438958 -0.000369011 255 255 255 255 
-0.0140918 0.318688 0.293356 -0.772606 0.465687 0.431527 255 255 255 255 
-0.0380205 0.185673 -0.244763 -0.474319 0.710877 -0.519303 255 255 255 255 
-0.0652612 0.0115191 -0.0794359 -0.592297 -0.795475 -0.128078 255 255 255 255 
0.0445024 0.20597 0.0614578 0.760513 0.599978 0.248286 255 255 255 255 
0.0354177 0.00347867 -0.00694952 0.208354 -0.973408 0.0952138 255 255 255 255 
-0.00209972 0.00914056 -0.292666 -0.510255 0.103716 -0.853746 255 255 255 255 
-0.00757615 -0.200432 -0.335211 0.204128 -0.247682 -0.947093 255 255 255 255 
0.0460911 0.244523 -0.043297 0.774063 0.537387 0.334727 255 255 255 255 
-0.0102312 0.210809 -0.216998 -0.324422 0.853994 -0.406748 255 255 255 255 
0.0221751 0.18315 0.25186 0.854778 -0.0618616 0.515294 255 255 255 255 
-0.0484679 0.0184183 -0.132573 -0.358713 -0.839642 -0.40783 255 255 255 255 
0.0305606 0.257129 0.206357 0.795715 -0.0312835 -0.604862 255 255 255 255 
-0.0796804 0.0473898 -0.191964 -0.831103 -0.32679 0.449973 255 255 255 255 
-0.0217751 0.0585697 -0.219185 0.859798 -0.320352 0.397645 255 255 255 255 
0.027641 0.213514 -0.187486 0.516097 0.734615 -0.440436 255 255 255 255 
-0.028773 0.192501 0.200526 -0.968875 0.14081 -0.203603 255 255 255 255 
-0.0758408 0.139402 -0.252955 -0.770733 0.358194 -0.526942 255 255 255 255 
0.0457289 0.188853 0.0886105 0.72045 0.578913 0.381854 255 255 255 255 
-0.00346482 0.16097 0.147629 -0.424922 0.592017 0.684804 255 255 255 255 
-0.0757347 0.188229 -0.124292 -0.880238 0.434175 -0.191503 255 255 255 255 
0.0288832 0.311532 0.180325 0.404315 -0.808308 -0.427982 255 255 255 255 
0.0799257 0.0262501 -0.0795649 0.721322 -0.680144 -0.130762 255 255 255 255 
-0.04509 0.0591337 0.114065 -0.549854 -0.544448 0.633433 255 255 255 255 
-0.0457745 0.20992 0.0237268 -0.795417 0.590666 0.135742 255 255 255 255 
-0.044784 0.0273209 -0.288467 -0.551138 0.0461666 -0.833136 255 255 255 255 
0.0175976 0.0142551 0.0922059 0.201478 -0.700375 0.684749 255 255 255 255 
-0.0176582 0.0492684 0.126114 -0.495984 -0.622012 0.605888 255 255 255 255 
-0.0144895 0.344499 0.227955 0.0025729 0.998034 -0.062622 255 255 255 255 
-0.0351593 0.300539 0.206333 -0.889266 -0.114389 -0.442856 255 255 255 255 
-0.0154604 0.29623 -0.069602 -0.453736 0.773703 0.442162 255 255 255 255 
0.0506283 0.200991 -0.181276 0.671567 0.670461 -0.315403 255 255 255 255 
-0.0790822 0.0407021 -0.265997 -0.814455 -0.00783001 -0.580174 255 255 255 255 
0.0369505 0.188328 -0.241452 0.430228 0.72215 -0.541667 255 255 255 255 
0.0126711 0.0727648 0.161449 0.317926 -0.743492 0.588339 255 255 255 255 
-0.0163372 0.0230865 0.100856 -0.210441 -0.682007 0.700415 255 255 255 255 
0.0194098 0.00321808 0.0719857 0.0426324 -0.90786 0.417099 255 255 255 255 
0.0778467 0.192116 -0.0548491 0.879498 0.459629 0.123389 255 255 255 255 
0.0492537 0.214819 -0.0129682 0.77581 0.570444 0.269652 255 255 255 255 
0.0675625 -0.0141207 -0.275785 0.812034 -0.0461965 -0.58178 255 255 255 255 
0.0578612 0.188595 0.0619957 0.822485 0.529594 0.207483 255 255 255 255 
-0.0508939 0.125598 -0.279193 -0.557671 0.302679 -0.772909 255 255 255 255 
0.0247128 -0.217138 -0.323675 0.354287 -0.188393 -0.915963 255 255 255 255 
0.0194571 0.158063 0.254485 0.876867 -0.152274 0.455979 255 255 255 255 
-0.0540924 0.193997 0.056464 -0.793286 0.568853 0.217036 255 255 255 255 
-0.0544441 0.060852 0.108284 -0.592131 -0.498503 0.633147 255 255 255 255 
-0.091932 0.105661 -0.175999 -0.958592 -0.167757 0.230128 255 255 255 255 
0.0108109 -0.169351 -0.344797 0.264898 -0.205742 -0.942072 255 255 255 255 
-0.10743 0.0856635 -0.0448991 -0.985415 -0.124117 0.116414 255 255 255 255 
-0.0167097 0.108875 0.219436 -0.802254 -0.411673 0.432336 255 255 255 255 
0.0896244 0.111279 0.0255001 0.991805 0.102209 0.0766547 255 255 255 255 
0.020977 0.279198 -0.0438601 0.618038 0.669536 0.412008 255 255 255 255 
0.0335398 0.198098 0.223115 0.998937 0.0457047 0.00596697 255 255 255 255 
0.0489309 0.213384 -0.158658 0.751923 0.556408 -0.353586 255 255 255 255 
-0.0290777 0.238724 -0.0145675 -0.708474 0.605512 0.362519 255 255 255 255 
0.107837 0.122989 -0.0960499 0.98573 0.116964 -0.12106 255 255 255 255 
0.0829592 0.13865 0.0320441 0.956586 0.283165 0.0690054 255 255 255 255 
0.0506005 -0.0563573 -0.297117 0.947285 -0.205057 -0.246177 255 255 255 255 
0.0879879 0.0229079 -0.217297 0.870664 -0.313755 0.378816 255 255 255 255 
0.0214916 0.221538 0.0808421 0.676013 0.660917 0.325876 255 255 255 255 
0.0455925 0.108457 0.143362 0.8688 -0.218634 0.444281 255 255 255 255 
-0.0858475 0.159719 -0.186782 -0.889932 0.431589 -0.147484 255 255 255 255 
0.0371088 0.312528 0.256576 0.937234 -0.0559894 0.344178 255 255 255 255 
0.0623766 0.0472061 -0.168854 0.76455 -0.327362 0.555245 255 255 255 255 
-0.086059 0.0126987 -0.247363 -0.970392 -0.195718 -0.141541 255 255 255 255 
0.0881275 0.0430765 -0.245929 0.889517 -0.0228957 -0.456327 255 255 255 255 
0.0374368 0.00172406 -0.104172 0.334911 -0.908596 -0.249577 255 255 255 255 
-0.0322442 0.259858 0.226179 -0.994472 -0.0456325 -0.0945735 255 255 255 255 
-0.0844251 0.152205 -0.220705 -0.873396 0.39553 -0.28414 255 255 255 255 
-0.0631989 0.180854 0.0457718 -0.853153 0.50126 0.144462 255 255 255 255 
-0.0819601 0.0382811 -0.00633633 -0.903901 -0.423625 0.0591944 255 255 255 255 
0.00745712 0.207967 0.264744 0.758186 -0.0176295 0.651801 255 255 255 255 
0.0310424 0.0622409 0.128738 0.53128 -0.523311 0.666248 255 255 255 255 
-0.0910414 0.172264 -0.0651865 -0.908108 0.413399 0.0666394 255 255 255 255 
0.0257839 0.0754431 0.150646 0.46594 -0.63458 0.616611 255 255 255 255 
0.0573126 0.212325 -0.0285302 0.812092 0.520262 0.264262 255 255 255 255 
0.0130818 0.292557 -0.0509351 0.619668 0.703042 0.348918 255 255 255 255 
-0.0278206 0.100556 0.189436 -0.825605 -0.416391 0.380781 255 255 255 255 
0.0374839 0.157757 0.201544 0.99183 0.0450808 0.119339 255 255 255 255 
0.0791918 0.022596 -0.023709 0.678933 -0.728397 0.092131 255 255 255 255 
0.0139364 0.00338273 0.0249279 0.0671404 -0.988447 0.135884 255 255 255 255 
0.0570053 0.181721 -0.232441 0.574844 0.668319 -0.472127 255 255 255 255 
0.0767338 0.0937785 -0.2658 0.777884 0.135696 -0.613582 255 255 255 255 
0.110777 0.1169 -0.0578105 0.997566 0.0575532 0.0393761 255 255 255 255 
-0.0704454 0.211252 -0.107484 -0.892036 0.42908 -0.141997 255 255 255 255 
-0.0191945 0.0902309 -0.294941 -0.526835 0.125924 -0.840588 255 255 255 255 
-0.0101301 0.178357 -0.269672 -0.344682 0.646938 -0.680196 255 255 255 255 
-0.0178778 -0.0808614 0.00646564 -0.0749132 0.0752041 -0.99435 255 255 255 255 
-0.0328248 -0.00324282 -0.0864258 -0.279852 -0.949713 -0.140459 255 255 255 255 
-0.00795911 0.238368 0.00179779 -0.263208 0.730757 0.629853 255 255 255 255 
-0.0815861 0.0251628 -0.0557539 -0.7607 -0.649089 -0.00437119 255 255 255 255 
-0.0653842 0.177254 0.0172554 -0.882374 0.453172 0.126692 255 255 255 255 
-0.0902219 0.108652 0.00408213 -0.983571 0.0947078 0.153685 255 255 255 255 
-0.0019742 0.297028 -0.132736 0.243944 0.628136 -0.738875 255 255 255 255 
-0.082259 0.171574 -0.0301557 -0.887517 0.418856 0.192022 255 255 255 255 
-0.0787396 0.150508 0.00550918 -0.932171 0.326181 0.157044 255 255 255 255 
0.0231646 0.191534 -0.246637 0.367334 0.743694 -0.558556 255 255 255 255 
0.109605 0.119771 -0.0886875 0.991264 0.0909517 -0.09552 255 255 255 255 
-0.07414 0.120768 -0.26379 -0.741807 0.266992 -0.615173 255 255 255 255 
-0.0883022 0.15596 -0.12917 -0.93984 0.288895 -0.182319 255 255 255 255 
-0.0329025 0.175106 0.203664 -0.991452 0.106914 -0.0747882 255 255 255 255 
-0.0181489 0.0992141 -0.294603 -0.514867 0.148684 -0.844277 255 255 255 255 
-0.015038 -0.245779 -0.313597 -0.588455 -0.140071 -0.796305 255 255 255 255 
0.0192758 0.281679 0.320191 0.94052 -0.324528 0.100515 255 255 255 255 
-0.0443174 0.204086 -0.18266 -0.610189 0.724916 -0.319634 255 255 255 255 
0.0551155 0.0853114 0.123142 0.686618 -0.351013 0.636667 255 255 255 255 
0.106022 0.0813554 -0.0401283 0.974709 -0.183888 0.126992 255 255 255 255 
0.0946879 0.0584032 -0.218592 0.95515 -0.201784 0.216729 255 255 255 255 
0.0161608 0.29633 -0.126753 0.332656 0.616062 -0.714008 255 255 255 255 
-0.0720069 0.106757 0.106514 -0.873821 -0.0791659 0.479759 255 255 255 255 
-0.032609 0.154988 0.229338 -0.874234 -0.217775 0.433923 255 255 255 255 
-0.0893344 0.0564332 -0.00763851 -0.950263 -0.303459 0.0700871 255 255 255 255 
-0.089843 0.10884 0.0642886 -0.981418 0.107823 0.158723 255 255 255 255 
0.0259066 0.230573 0.00171457 0.528625 0.698628 0.482156 255 255 255 255 
-0.00742671 0.240748 -0.171232 -0.498616 0.620351 -0.605431 255 255 255 255 
-0.105493 0.0641014 -0.0633233 -0.940549 -0.339459 0.0116443 255 255 255 255 
0.085131 0.138098 0.0129794 0.961723 0.254648 0.101209 255 255 255 255 
0.081397 0.15139 0.00684069 0.937953 0.325146 0.120517 255 255 255 255 
-0.0166818 0.270193 0.255384 -0.421413 -0.668401 0.612904 255 255 255 255 
0.0302639 0.192603 -0.240568 0.404613 0.743874 -0.531921 255 255 255 255 
-0.0350588 0.0570395 -0.194275 0.813475 -0.345686 0.467717 255 255 255 255 
-0.0339733 0.2669 0.2576 -0.997145 -0.075515 0.000562183 255 255 255 255 
0.0930572 0.0324754 -0.23206 0.956386 -0.0933199 -0.276797 255 255 255 255 
0.0290206 0.240064 -0.157877 0.600448 0.569908 -0.560952 255 255 255 255 
0.0208255 0.234208 -0.167279 0.539043 0.623019 -0.566816 255 255 255 255 
-0.0151578 0.187409 0.117548 -0.375785 0.639128 0.671044 255 255 255 255 
-0.0933836 0.0642739 -0.0149851 -0.963287 -0.249493 0.0991509 255 255 255 255 
0.102996 0.107278 -0.118276 0.974744 -0.0393236 -0.219835 255 255 255 255 
-0.0675585 0.0151182 -0.018233 -0.661157 -0.745258 0.0863786 255 255 255 255 
-0.00488064 0.00386505 0.00774735 0.0246564 -0.993073 0.114886 255 255 255 255 
-0.00318282 0.344145 0.255329 -0.0544644 0.986969 0.151416 255 255 255 255 
0.090488 0.0480593 -0.018431 0.932117 -0.324052 0.161707 255 255 255 255 
0.000200328 0.0369941 -0.294026 -0.528117 0.0652988 -0.846657 255 255 255 255 
-0.0430137 0.104494 -0.286716 -0.534672 0.200269 -0.820986 255 255 255 255 
-0.0646139 0.222989 -0.066223 -0.860491 0.474385 0.185783 255 255 255 255 
-0.0848792 0.0479848 0.000882466 -0.961598 -0.274177 0.0125041 255 255 255 255 
-0.0538965 0.110694 -0.281059 -0.579026 0.231194 -0.781843 255 255 255 255 
0.0151037 0.300836 -0.0705829 0.621422 0.762269 0.181057 255 255 255 255 
-0.0148911 0.260583 0.24631 -0.395592 -0.665066 0.633399 255 255 255 255 
0.0606444 0.0501071 0.0970199 0.639466 -0.436793 0.632689 255 255 255 255 
-0.0877035 0.123359 0.0652624 -0.967697 0.221057 0.121232 255 255 255 255 
-0.0681038 0.0660878 0.0964696 -0.827863 -0.264336 0.494742 255 255 255 255 
0.0794748 0.134819 -0.250476 0.731069 0.348839 -0.586386 255 255 255 255 
-0.0788258 0.049824 -0.134713 -0.794038 -0.453243 -0.40506 255 255 255 255 
0.003005 -0.00869351 -0.292931 -0.506114 0.158393 -0.847797 255 255 255 255 
0.0476546 0.209474 0.015744 0.78872 0.589196 0.175409 255 255 255 255 
0.0351614 -0.00319434 -0.303686 0.64452 0.006526 -0.76456 255 255 255 255 
-0.0295989 -0.00276898 -0.223162 0.813046 -0.25749 0.522164 255 255 255 255 
-0.0665196 0.120253 0.116499 -0.864362 0.00360358 0.502857 255 255 255 255 
-0.0250157 -0.00523784 -0.058842 -0.165701 -0.986054 0.015542 255 255 255 255 
0.0311307 0.143124 0.225044 0.889241 -0.227626 0.396783 255 255 255 255 
-0.0164282 0.0735959 -0.29559 -0.549136 0.087151 -0.831177 255 255 255 255 
0.037331 0.211866 -0.178414 0.582486 0.695168 -0.42125 255 255 255 255 
-0.0262106 0.0413475 -0.217579 0.844365 -0.280212 0.45665 255 255 255 255 
0.0202112 0.315745 0.180172 0.0695718 -0.100792 -0.992472 255 255 255 255 
-0.0818526 0.136281 0.0449183 -0.953716 0.295179 0.0573996 255 255 255 255 
0.0675045 -0.0282597 -0.273063 0.843159 -0.0697991 -0.533114 255 255 255 255 
-0.0166022 0.0051607 0.00285648 0.122288 -0.992239 -0.0225281 255 255 255 255 
-0.0732238 0.208684 -0.0761217 -0.890126 0.449918 0.0724553 255 255 255 255 
0.0313185 0.226712 0.0339449 0.702459 0.688876 0.17889 255 255 255 255 
-0.0182674 0.0219607 -0.29128 -0.516602 0.0719373 -0.853198 255 255 255 255 
-0.00731385 0.191545 0.261857 -0.512288 -0.121959 0.85011 255 255 255 255 
-0.0586329 0.0307826 -0.142699 -0.428381 -0.784805 -0.447851 255 255 255 255 
-0.0353269 0.248252 -0.0359681 -0.738323 0.559163 0.377115 255 255 255 255 
0.0371398 0.252534 -0.144159 0.664795 0.532615 -0.523802 255 255 255 255 
-0.00315894 0.127833 0.242214 -0.240107 -0.411747 0.879098 255 255 255 255 
0.0627754 0.240072 -0.0986824 0.883704 0.468045 -0.000514359 255 255 255 255 
0.0418759 0.198626 0.0809902 0.724431 0.597012 0.344638 255 255 255 255 
0.022777 0.0852911 0.180735 0.181483 -0.798039 0.574628 255 255 255 255 
-0.0051372 0.0180773 0.0989487 -0.0994173 -0.723612 0.683009 255 255 255 255 
0.0580148 0.225389 -0.0488386 0.835675 0.48748 0.253002 255 255 255 255 
-0.0510432 0.0720147 0.11853 -0.709599 -0.426346 0.56098 255 255 255 255 
0.0865672 0.128475 0.0237528 0.974089 0.212084 0.0785586 255 255 255 255 
-0.0585074 0.00978526 -0.00800801 -0.49025 -0.865871 0.0996083 255 255 255 255 
0.0147965 0.297123 -0.0604857 0.63237 0.725329 0.27204 255 255 255 255 
0.10819 0.0970297 -0.0413374 0.988136 -0.0844156 0.1283 255 255 255 255 
-0.0870035 0.128522 0.000958664 -0.961193 0.212712 0.175676 255 255 255 255 
-0.0108002 0.309778 -0.109 -0.60999 0.792174 -0.0193182 255 255 255 255 
-0.0878029 0.144481 -0.0125423 -0.935979 0.289342 0.200561 255 255 255 255 
0.0909434 0.0367914 -0.215822 0.887121 -0.278764 0.36784 255 255 255 255 
-0.0588292 0.0138956 0.0778322 -0.033517 -0.480919 0.876124 255 255 255 255 
0.0315946 0.266243 -0.140642 0.579339 0.559788 -0.592456 255 255 255 255 
0.0720541 0.0654604 -0.190231 0.944329 -0.235851 -0.229383 255 255 255 255 
-0.0484952 0.119076 -0.282039 -0.551615 0.262836 -0.791605 255 255 255 255 
-0.0520854 0.00293275 -0.0506617 -0.341267 -0.939379 0.0332176 255 255 255 255 
0.0175671 0.172837 0.13388 0.713365 0.631825 0.303162 255 255 255 255 
0.0847083 0.00700844 -0.249068 0.923092 -0.0964957 -0.372276 255 255 255 255 
-0.0338233 0.00395337 0.00814429 -0.143195 -0.983269 0.112597 255 255 255 255 
-0.0243025 0.300005 -0.104403 -0.6392 0.769021 0.00549089 255 255 255 255 
-0.0662146 0.0419576 0.0869129 -0.568724 -0.478878 0.668752 255 255 255 255 
0.0598207 0.219214 -0.133636 0.822166 0.481798 -0.303172 255 255 255 255 
0.0708826 0.0756637 -0.185216 0.934639 -0.254384 -0.248473 255 255 255 255 
0.0662341 -0.0347995 -0.243166 0.5781 -0.599359 0.553686 255 255 255 255 
-0.103888 0.140052 -0.0499558 -0.955764 0.267242 0.122874 255 255 255 255 
-0.00249813 0.216738 0.0920278 -0.046555 0.727189 0.684857 255 255 255 255 
-0.0816711 0.144853 0.0724011 -0.918714 0.360162 0.162009 255 255 255 255 
-0.00165139 -0.0250414 -0.29395 -0.525681 0.190552 -0.829065 255 255 255 255 
0.0272543 0.0692557 0.139522 0.603734 -0.502106 0.619189 255 255 255 255 
0.0306612 0.232903 0.22803 0.998794 -0.0010529 -0.0490762 255 255 255 255 
-0.00621553 0.267036 0.184812 0.0964285 -0.106561 -0.989619 255 255 255 255 
0.0430214 0.231725 -0.149996 0.697974 0.535158 -0.475856 255 255 255 255 
0.0507242 0.00926688 0.0083752 0.343085 -0.933863 0.10096 255 255 255 255 
-0.0153589 -0.0332777 0.0521539 0.984211 0.0103793 -0.176692 255 255 255 255 
-0.0616212 -0.340837 -0.276713 -0.155007 -0.982536 0.102932 255 255 255 255 
-0.0870104 0.0685583 0.0624942 -0.900164 -0.197174 0.388365 255 255 255 255 
-0.0859846 0.173805 -0.0447126 -0.892376 0.422878 0.157605 255 255 255 255 
-0.0410076 0.192189 -0.230007 -0.494635 0.7559 -0.428896 255 255 255 255 
0.0116898 0.250413 -0.0114618 0.484344 0.693364 0.533533 255 255 255 255 
0.0118262 0.00808194 0.0842945 0.066164 -0.747726 0.660702 255 255 255 255 
0.0983397 0.156857 -0.0909197 0.939874 0.332999 -0.0758213 255 255 255 255 
0.0245551 0.295933 -0.0818787 0.623864 0.770856 0.128747 255 255 255 255 
-0.0685346 0.0477977 -0.175204 -0.810232 -0.353433 0.467558 255 255 255 255 
-0.0481339 0.244084 -0.134863 -0.780645 0.478356 -0.402205 255 255 255 255 
-0.0516618 0.172942 0.103054 -0.641725 0.567854 0.515491 255 255 255 255 
0.0122658 0.275793 0.185155 0.103986 -0.11398 -0.988026 255 255 255 255 
-0.0456667 0.0969221 -0.28686 -0.552571 0.177634 -0.814316 255 255 255 255 
0.0322921 -0.15644 0.0198797 0.892809 0.0584316 -0.446629 255 255 255 255 
0.0514662 0.175059 -0.246647 0.531568 0.622926 -0.573933 255 255 255 255 
-0.0689391 0.21968 -0.0785971 -0.887717 0.453125 0.0814652 255 255 255 255 
0.101658 0.0849751 -0.0241842 0.974043 -0.142619 0.175783 255 255 255 255 
-0.0130064 -0.0305345 -0.273961 0.94848 -0.182128 0.259257 255 255 255 255 
0.0626356 0.118088 -0.271995 0.618604 0.277226 -0.73517 255 255 255 255 
0.0806962 0.188733 -0.106014 0.896595 0.430309 -0.104649 255 255 255 255 
0.0577463 0.000572947 -0.200199 -0.546191 -0.385136 0.743872 255 255 255 255 
0.091069 0.0962504 0.0284175 0.996495 0.0314311 0.0775195 255 255 255 255 
-0.089643 0.0367819 -0.0495685 -0.840496 -0.540913 0.0313028 255 255 255 255 
0.0841838 0.150504 -0.230108 0.855365 0.398598 -0.330862 255 255 255 255 
-0.0152306 0.036831 -0.166169 -0.0666824 -0.80637 -0.58764 255 255 255 255 
-0.0103514 -0.192208 -0.00737736 -0.0252787 -0.0665969 -0.99746 255 255 255 255 
-0.00214021 -0.305738 -0.291402 0.508106 0.308596 0.804113 255 255 255 255 
-0.0780894 0.0834014 -0.266758 -0.790074 0.100595 -0.604701 255 255 255 255 
-0.0321364 0.280264 0.25512 -0.445687 -0.669293 0.594483 255 255 255 255 
0.0416778 0.283541 -0.100596 0.739731 0.672863 0.00736574 255 255 255 255 
0.0403155 0.0544575 -0.180996 0.189685 -0.774222 -0.603821 255 255 255 255 
-0.012114 0.162032 0.142492 -0.448811 0.584624 0.675858 255 255 255 255 
0.00992858 -0.132665 -0.306523 -0.323101 -0.16727 0.931465 255 255 255 255 
-0.0481477 0.000512273 -0.058738 -0.35387 -0.935255 -0.0086102 255 255 255 255 
0.0542219 -0.0702015 0.0134256 0.5392 -0.018813 -0.841968 255 255 255 255 
0.0200665 0.273376 0.272619 0.916657 -0.209838 0.340158 255 255 255 255 
0.00323687 -0.111653 0.0200558 0.713371 -0.00219278 0.700783 255 255 255 255 
0.0544953 0.0274323 0.0847395 0.380007 -0.572698 0.726369 255 255 255 255 
-0.0226581 0.220632 0.0812396 -0.618594 0.68464 0.3855 255 255 255 255 
0.0580993 0.0202072 0.0778117 0.511168 -0.5082 0.693138 255 255 255 255 
-0.0304832 0.285445 -0.0707145 -0.623161 0.699013 0.350787 255 255 255 255 
0.0404844 0.141826 0.184719 0.968143 -0.104693 0.227463 255 255 255 255 
-0.0950292 0.079081 -0.210323 -0.983555 -0.150491 0.0998636 255 255 255 255 
0.0759337 0.159303 0.0669728 0.904051 0.395462 0.162177 255 255 255 255 
-0.08059 0.135102 0.0279566 -0.958681 0.272676 0.0811084 255 255 255 255 
0.0189931 -0.092616 0.0385683 -0.285227 -0.263381 0.921562 255 255 255 255 
-0.0591377 0.155338 0.111526 -0.699905 0.482225 0.52687 255 255 255 255 
-0.0811603 -0.00397737 -0.227021 -0.83528 -0.445002 0.322925 255 255 255 255 
-0.0895632 0.0295343 -0.219637 -0.985991 -0.15727 -0.0555739 255 255 255 255 
-0.0900513 0.0528609 -0.233875 -0.980644 -0.0781544 -0.179524 255 255 255 255 
0.0137063 0.270379 0.278423 0.898325 -0.194541 0.393911 255 255 255 255 
0.0142776 0.250693 0.189874 0.1514 -0.0706571 -0.985944 255 255 255 255 
-0.0593468 0.0679556 0.108431 -0.774568 -0.334959 0.536514 255 255 255 255 
0.0765635 0.173731 -0.155005 0.886738 0.442038 -0.135275 255 255 255 255 
0.105699 0.117189 -0.108856 0.983856 0.0730251 -0.163385 255 255 255 255 
-0.0977794 0.0913413 -0.0140628 -0.985705 -0.0427834 0.16296 255 255 255 255 
-0.0476619 0.111142 0.140092 -0.911231 -0.142996 0.386277 255 255 255 255 
0.0459124 -0.278297 0.026287 0.644446 0.427857 0.633742 255 255 255 255 
-0.0470207 -0.327284 -0.30819 -0.520448 -0.0575033 -0.851955 255 255 255 255 
-0.0535829 0.198348 0.0315583 -0.823379 0.549495 0.141783 255 255 255 255 
0.0574989 -0.0612512 -0.27202 0.941642 -0.209867 -0.263184 255 255 255 255 
-0.0215443 0.166513 0.249877 -0.552962 -0.222862 0.802848 255 255 255 255 
-0.0537193 -0.0731894 0.0113351 -0.936914 -0.230162 -0.263094 255 255 255 255 
-0.00612155 0.283437 -0.143151 -0.400306 0.623421 -0.67164 255 255 255 255 
-0.0502368 0.203874 0.0168829 -0.814826 0.563489 0.136157 255 255 255 255 
0.0756018 0.163837 0.00604634 0.914128 0.383455 0.131652 255 255 255 255 
0.0151549 0.229589 0.0774546 0.0754713 0.773716 0.629021 255 255 255 255 
-0.0117081 -0.126858 -0.307297 0.260685 -0.157379 0.95251 255 255 255 255 
0.0132556 0.343723 0.239205 0.15912 0.987093 0.0181022 255 255 255 255 
0.0899449 0.0716139 -0.130872 0.892457 -0.306751 -0.330792 255 255 255 255 
-0.0818246 0.132073 0.0194964 -0.96293 0.24616 0.110323 255 255 255 255 
0.0346524 0.150083 0.173233 0.782589 0.600795 -0.163095 255 255 255 255 
0.00174181 0.167494 0.143793 -0.394734 0.604817 0.691651 255 255 255 255 
0.0426426 0.213 0.045513 0.762886 0.615916 0.196604 255 255 255 255 
0.0575703 0.0655375 0.110342 0.652633 -0.406992 0.639083 255 255 255 255 
0.0336467 0.104899 -0.293125 0.434428 0.222106 -0.872892 255 255 255 255 
-0.00063988 0.335728 0.288739 -0.0567855 0.959225 0.276881 255 255 255 255 
-0.0172584 -0.0215358 -0.253659 0.921146 -0.196073 0.336223 255 255 255 255 
0.0277461 0.18763 0.24364 0.874482 -0.0518428 0.48228 255 255 255 255 
0.0122621 -0.0278777 -0.30059 -0.512083 0.214881 -0.831623 255 255 255 255 
0.033612 0.0188562 -0.143321 0.240618 -0.835035 -0.494792 255 255 255 255 
0.0537467 0.0753925 0.119841 0.674797 -0.378891 0.633317 255 255 255 255 
-0.075643 0.0672698 -0.270039 -0.748011 0.0589472 -0.661064 255 255 255 255 
-0.0936827 0.113724 -0.131136 -0.943633 0.0176469 -0.330524 255 255 255 255 
0.0596681 0.112431 0.126652 0.841748 -0.110351 0.528472 255 255 255 255 
-0.0530129 -0.0603075 -0.282088 -0.859136 -0.00344935 -0.511735 255 255 255 255 
-0.0755512 0.130672 0.103937 -0.874571 0.12978 0.467208 255 255 255 255 
-0.0272655 -0.00188478 -0.100972 -0.234283 -0.947953 -0.215631 255 255 255 255 
0.0243749 0.172777 0.248822 0.882554 -0.0935488 0.460811 255 255 255 255 
-0.011282 0.340442 0.267667 -0.101668 0.971559 0.21386 255 255 255 255 
0.0127846 -0.0729863 0.0429206 -0.222731 -0.288719 0.931146 255 255 255 255 
-0.0800469 0.16159 -0.0107982 -0.909291 0.370722 0.18909 255 255 255 255 
0.0350145 0.109916 0.181674 0.923083 -0.238891 0.301411 255 255 255 255 
-0.0368881 0.0914126 0.153143 -0.863762 -0.347202 0.365193 255 255 255 255 
0.00294827 -0.00776599 -0.0759305 0.017303 -0.997051 -0.0747689 255 255 255 255 
-0.00449684 0.237771 0.261892 -0.542002 -0.0478789 0.839012 255 255 255 255 
0.0279915 0.00830857 -0.299566 -0.495244 0.137171 -0.857857 255 255 255 255 
-0.0340685 -0.180744 -0.323928 -0.733751 -0.113799 -0.66982 255 255 255 255 
-0.0915917 0.0797006 0.000571418 -0.99324 -0.075611 0.0880709 255 255 255 255 
-0.0190712 -0.0648773 0.041616 0.998624 0.0147737 0.0503217 255 255 255 255 
-0.0296422 0.225317 0.229185 -0.995477 0.0401165 -0.0861191 255 255 255 255 
-0.0260915 0.143171 -0.284837 -0.464052 0.376354 -0.801881 255 255 255 255 
-0.0438762 -0.0517643 0.0101709 -0.124169 0.0595425 -0.990473 255 255 255 255 
-0.0655337 0.0481897 -0.154454 -0.76185 -0.463224 -0.452779 255 255 255 255 
-0.0248849 0.147325 0.239072 -0.815696 -0.269152 0.512052 255 255 255 255 
0.0130367 0.101478 0.213066 0.0739657 -0.794475 0.602776 255 255 255 255 
-0.00820682 -0.292046 0.0385319 0.779811 -0.218503 -0.586644 255 255 255 255 
-0.102333 0.148541 -0.0878407 -0.95065 0.300905 -0.0756373 255 255 255 255 
0.00234812 0.241613 0.0455066 0.178523 0.983397 0.0325426 255 255 255 255 
-0.086417 0.0456736 0.0333086 -0.975576 -0.21923 0.0137471 255 255 255 255 
-0.0433115 0.236978 -0.144573 -0.699357 0.518113 -0.492402 255 255 255 255 
0.102704 0.06036 -0.0627585 0.933279 -0.359028 -0.00939577 255 255 255 255 
0.0221995 -0.0172261 -0.301838 -0.471662 0.211146 -0.856126 255 255 255 255 
-0.101127 0.146689 -0.0977958 -0.951146 0.279371 -0.131425 255 255 255 255 
-0.0430685 0.12189 0.149611 -0.879057 0.0841983 0.469222 255 255 255 255 
-0.0104849 0.139214 0.245313 -0.23986 -0.380645 0.893071 255 255 255 255 
-0.0898409 0.0363935 -0.230045 -0.982066 -0.114161 -0.150047 255 255 255 255 
-0.0681979 0.169863 0.0294374 -0.896666 0.42965 0.106729 255 255 255 255 
-0.0861785 0.121666 0.0459622 -0.974456 0.214254 0.0673032 255 255 255 255 
0.092225 0.113813 -0.176442 0.998238 -0.0376237 0.0458909 255 255 255 255 
0.0413726 -0.000731313 -0.212526 -0.574283 -0.373578 0.728449 255 255 255 255 
-0.0824209 0.0343725 0.0373112 -0.964723 -0.257228 0.0560599 255 255 255 255 
0.0364803 0.271165 0.216974 0.97219 -0.125042 0.198016 255 255 255 255 
-0.0715837 0.0163855 -0.195071 -0.782304 -0.387713 0.487523 255 255 255 255 
-0.0703155 0.164664 0.0342373 -0.905974 0.412579 0.0948156 255 255 255 255 
0.0628662 0.188664 0.00374261 0.856919 0.488544 0.164362 255 255 255 255 
0.0835085 0.138836 0.0446682 0.954714 0.287425 0.0768664 255 255 255 255 
-0.0958397 0.120476 -0.213474 -0.956712 0.191004 -0.219591 255 255 255 255 
0.0583251 -0.0496998 0.0155803 0.50376 0.0355359 -0.863113 255 255 255 255 
0.0724317 0.0491721 -0.145562 0.790805 -0.460566 -0.403122 255 255 255 255 
-0.0604978 0.186686 0.0244705 -0.85888 0.496219 0.126852 255 255 255 255 
0.0679449 0.03065 -0.128379 0.669307 -0.657439 -0.346125 255 255 255 255 
0.0913599 0.0549611 -0.238134 0.913155 -0.0187154 -0.407182 255 255 255 255 
0.0958605 0.1114 -0.19977 0.998565 0.0382536 -0.0374758 255 255 255 255 
-0.0570838 0.212593 -0.0347975 -0.818444 0.51263 0.259537 255 255 255 255 
-0.00329892 0.20802 -0.230624 -0.241655 0.857139 -0.45488 255 255 255 255 
-0.0745832 0.202163 -0.106468 -0.894473 0.428152 -0.128857 255 255 255 255 
0.00906185 0.184885 0.18559 0.460402 0.127638 -0.878487 255 255 255 255 
-0.0458804 -0.29155 0.0173243 -0.425852 -0.155935 -0.891255 255 255 255 255 
-0.0338935 0.267614 -0.0535389 -0.708583 0.594113 0.38071 255 255 255 255 
0.0431284 -0.0111055 -0.300567 0.70056 -0.00369866 -0.713584 255 255 255 255 
-0.0617554 0.00716914 -0.0553201 -0.540025 -0.841619 -0.00712432 255 255 255 255 
-0.026069 -0.0831263 0.00541102 -0.0532497 0.0699928 -0.996125 255 255 255 255 
0.0379339 0.330305 0.220208 0.884657 0.46571 -0.0222651 255 255 255 255 
