ply
format ascii 1.0
comment VCGLIB generated
element vertex 630
property float x
property float y
property float z
property float nx
property float ny
property float nz
property uchar red
property uchar green
property uchar blue
property uchar alpha
element face 0
property list uchar int vertex_indices
end_header
0.0554149 -0.0417534 -0.175331 -0.480951 -0.411763 0.77404 255 255 255 255 
-0.131482 -0.0833862 0.192419 0.144437 -0.386469 -0.910922 255 255 255 255 
0.300686 -0.0291494 0.080643 -0.861813 -0.458974 -0.21592 255 255 255 255 
0.137884 0.0315178 -0.0329179 0.0347235 0.997118 0.0674575 255 255 255 255 
-0.0833362 0.0134544 0.1539 0.0143084 -0.959001 -0.283041 255 255 255 255 
-0.0335048 -0.0496904 -0.215081 -0.101551 -0.4171 0.903169 255 255 255 255 
-0.227152 0.0173611 -0.0505119 0.343256 -0.937743 0.0530423 255 255 255 255 
-0.224414 -0.0823056 0.164598 -0.517256 0.615128 0.595033 255 255 255 255 
0.178416 0.0164104 -0.0464603 -0.118619 -0.988537 0.0933985 255 255 255 255 
-0.00720702 -0.124171 0.254213 0.425944 -0.873807 0.234592 255 255 255 255 
-0.0249282 -0.0860134 0.218187 0.218398 0.443203 0.86941 255 255 255 255 
0.0996596 0.0337605 -0.0596321 0.0380622 0.996106 0.0795251 255 255 255 255 
0.0863608 0.0570095 -0.0791728 0.0953314 0.242038 0.965572 255 255 255 255 
0.188354 0.0163365 0.0574903 -0.169254 -0.985518 -0.0103204 255 255 255 255 
0.296468 -0.112249 0.15689 -0.246149 -0.948695 -0.198464 255 255 255 255 
0.315678 -0.0537342 0.119109 0.703452 0.668687 0.240858 255 255 255 255 
0.078174 0.0464277 -0.119509 0.0388493 0.207443 -0.977475 255 255 255 255 
-0.259608 0.00854261 0.0687792 0.863514 -0.222849 -0.452418 255 255 255 255 
0.12621 0.0180151 -0.0752442 -0.125847 -0.977133 0.171386 255 255 255 255 
-0.264578 0.0163812 0.0515539 0.872645 -0.238564 -0.42612 255 255 255 255 
0.143237 0.0385684 -0.083356 0.167099 0.984946 0.0442599 255 255 255 255 
-0.231369 0.0344462 0.0494265 -0.121783 0.991524 0.0452774 255 255 255 255 
0.243383 0.0112535 0.0165808 -0.347602 -0.937634 0.00398594 255 255 255 255 
0.0308828 0.0202405 0.0453801 -0.283918 -0.955037 0.0854116 255 255 255 255 
0.032423 0.0154458 -0.110656 -0.211747 -0.934576 0.285886 255 255 255 255 
-0.253262 0.0330316 0.0474001 -0.137371 0.989375 0.0475971 255 255 255 255 
-0.303629 -0.130281 -0.0417644 0.744157 -0.652456 0.143288 255 255 255 255 
0.152302 -0.0746011 -0.171023 0.316393 -0.931682 0.178504 255 255 255 255 
0.0159377 -0.0296449 -0.225524 0.338247 0.143782 -0.930009 255 255 255 255 
0.302155 -0.0285849 0.0145179 -0.846998 -0.523928 -0.0899646 255 255 255 255 
0.109854 -0.106015 -0.192998 -0.484991 0.57216 -0.661375 255 255 255 255 
0.322543 -0.0439178 0.0207869 0.795555 0.598506 -0.0942476 255 255 255 255 
0.0294999 -0.114528 -0.23921 -0.0965996 -0.967501 0.233688 255 255 255 255 
-0.215992 -0.113749 0.155052 0.308435 -0.874564 -0.374172 255 255 255 255 
0.241421 0.0239315 -0.107659 0.223219 0.973287 -0.0537108 255 255 255 255 
0.0332515 0.0181349 0.173437 0.35315 0.551904 0.755438 255 255 255 255 
0.15127 -0.0664482 -0.288908 -0.50824 0.783574 0.357357 255 255 255 255 
0.337344 -0.102023 -0.201057 0.489948 0.635498 -0.596735 255 255 255 255 
0.368048 -0.106447 -0.199468 0.632908 0.672997 -0.382755 255 255 255 255 
-0.214055 0.0177141 -0.0206838 0.372617 -0.927828 0.0170991 255 255 255 255 
-0.280267 0.00457137 -0.0646901 0.328011 -0.944136 0.0318628 255 255 255 255 
0.319819 -0.0458345 0.10981 0.781786 0.591633 0.196928 255 255 255 255 
-0.266447 -0.12991 0.155474 0.285093 -0.876236 -0.3885 255 255 255 255 
-0.195978 0.0329166 -0.148313 0.450626 -0.658483 0.602774 255 255 255 255 
0.00100837 -0.104049 0.282516 0.10029 0.706024 0.701051 255 255 255 255 
0.247766 -0.0174578 -0.150355 -0.0873894 -0.428189 0.899454 255 255 255 255 
0.342903 -0.083517 0.136462 0.627093 0.749511 0.212105 255 255 255 255 
0.0704242 0.0666126 0.0889447 0.0232797 0.317857 0.947853 255 255 255 255 
0.0846319 0.0268743 -0.128139 0.0957653 0.231887 -0.968017 255 255 255 255 
0.233881 0.0138264 -0.0682164 -0.261204 -0.96397 0.0503348 255 255 255 255 
-0.278351 -0.0832352 0.0230615 0.809076 -0.579547 -0.0975823 255 255 255 255 
0.358329 -0.106565 -0.214737 0.592494 0.667626 -0.450807 255 255 255 255 
-0.151931 0.0165261 0.122586 0.118268 -0.974752 -0.1894 255 255 255 255 
-0.282761 0.0297767 0.0305414 -0.164987 0.985787 0.0316803 255 255 255 255 
-0.17785 0.0368227 -0.122607 -0.103469 0.990375 -0.0919267 255 255 255 255 
0.262105 -0.0527585 0.142108 0.199694 0.376681 0.904563 255 255 255 255 
-0.0733387 -0.107344 -0.292379 0.00242247 -0.870684 -0.491837 255 255 255 255 
-0.215571 0.0345992 -0.0881129 -0.112333 0.991552 -0.0648596 255 255 255 255 
0.102772 -0.106687 0.215383 -0.291857 0.807294 0.512928 255 255 255 255 
0.19239 -0.0117641 0.137364 0.0364017 0.410911 0.910949 255 255 255 255 
-0.242454 0.01877 -0.127037 0.798167 -0.207529 0.565563 255 255 255 255 
0.135665 0.0316067 -0.137912 0.110124 0.96626 -0.232842 255 255 255 255 
-0.14923 0.0344449 0.136528 -0.0633336 0.990668 0.120687 255 255 255 255 
-0.00313164 -0.0929664 -0.214092 -0.234488 -0.628767 0.741396 255 255 255 255 
0.252175 -0.115378 0.234437 -0.165984 -0.935814 -0.31097 255 255 255 255 
0.213511 0.0152892 -0.108823 -0.190996 -0.97492 0.114247 255 255 255 255 
0.101134 0.00981908 0.13571 0.164188 0.40426 0.899787 255 255 255 255 
-0.0443553 -0.0792814 0.19832 -0.0756342 -0.388054 -0.918528 255 255 255 255 
-0.264702 -0.123994 -0.216879 -0.453309 0.77095 -0.447378 255 255 255 255 
0.0254064 0.0216293 0.0341333 -0.306719 -0.944374 0.118669 255 255 255 255 
-0.254589 -0.039496 -0.121056 0.840726 -0.126242 0.526538 255 255 255 255 
0.213353 -0.0729096 0.194511 -0.0752001 -0.974773 -0.210148 255 255 255 255 
0.0397105 -0.0131909 -0.209745 0.441934 0.181614 -0.878471 255 255 255 255 
0.160483 -0.102068 0.191823 0.225349 -0.926341 -0.301846 255 255 255 255 
-0.0478698 0.0363095 -0.0926081 -0.305101 -0.266609 0.914239 255 255 255 255 
0.100605 0.0321795 -0.0467136 0.037274 0.997081 0.0666321 255 255 255 255 
0.153071 0.0358709 -0.0690773 0.140781 0.988535 0.0545865 255 255 255 255 
0.225079 0.0150861 -0.023607 -0.225015 -0.973881 0.0303895 255 255 255 255 
-0.300649 -0.0906177 -0.00923796 0.0888945 0.98081 0.173523 255 255 255 255 
0.235709 -0.0329099 -0.286588 0.316241 0.948482 -0.0193123 255 255 255 255 
0.386226 -0.11598 0.137889 0.711636 -0.701703 0.0344519 255 255 255 255 
-0.167607 -0.0346463 -0.202842 0.459568 -0.106066 0.881787 255 255 255 255 
-0.0208639 0.0316945 -0.119729 -0.00816169 0.175262 -0.984488 255 255 255 255 
0.200821 -0.0616974 0.156038 0.0549411 -0.98623 -0.155985 255 255 255 255 
-0.152489 -0.115645 0.191482 0.446566 0.644765 -0.620368 255 255 255 255 
0.153189 -0.0922695 0.17389 0.79367 -0.607969 -0.0214821 255 255 255 255 
0.0077828 -0.0784718 -0.204544 -0.307421 -0.570026 0.761947 255 255 255 255 
0.314666 -0.0601297 0.0762646 -0.928596 -0.314053 -0.197688 255 255 255 255 
-0.278367 -0.0438706 0.0327508 0.894603 -0.402734 -0.193625 255 255 255 255 
-0.280277 -0.0243634 0.0136191 0.929676 -0.357519 -0.0887888 255 255 255 255 
0.147664 -0.122576 0.224133 0.125279 -0.951293 -0.281685 255 255 255 255 
0.0621501 -0.0813563 -0.171836 -0.443931 -0.573084 0.688839 255 255 255 255 
-0.00673079 0.0410801 0.0961936 0.00391975 0.3136 0.949547 255 255 255 255 
-0.0530049 0.00982422 -0.210347 -0.00769862 -0.26506 0.964201 255 255 255 255 
-0.0250721 0.010469 0.190236 -0.182473 -0.218633 -0.958595 255 255 255 255 
-0.0118399 0.0337083 -0.182218 0.0354795 0.987928 -0.150795 255 255 255 255 
0.335811 -0.121098 -0.131577 -0.349065 -0.83286 0.429533 255 255 255 255 
0.0483153 -0.0574604 -0.197116 0.504602 0.511359 -0.695621 255 255 255 255 
0.347366 -0.0678593 -0.0863234 0.730184 0.649172 -0.213089 255 255 255 255 
0.209055 0.0144443 0.0955455 -0.188089 -0.98113 -0.0447822 255 255 255 255 
-0.146591 0.0816904 0.0385295 0.803203 0.0539485 -0.593258 255 255 255 255 
0.286674 -0.00857927 -0.0504748 -0.654009 -0.756413 0.010563 255 255 255 255 
-0.150986 -0.0305299 0.188566 0.340064 -0.176631 -0.923666 255 255 255 255 
-0.158555 0.0678752 -0.0260125 0.994329 -0.00165657 0.106337 255 255 255 255 
-0.107933 0.0242415 -0.108409 0.107169 -0.908612 0.403657 255 255 255 255 
-0.232317 -0.0907167 0.128839 0.769233 -0.263409 -0.582148 255 255 255 255 
0.114552 0.0307594 0.0123411 0.0456498 0.99876 -0.0198488 255 255 255 255 
0.164415 -0.076072 -0.266912 0.684893 -0.728015 -0.0302408 255 255 255 255 
-0.272493 -0.0201532 0.0472527 0.892455 -0.305538 -0.331919 255 255 255 255 
0.124623 0.0104813 -0.128114 -0.099394 -0.975944 0.194049 255 255 255 255 
-0.232989 0.0150274 -0.0311184 0.348046 -0.937135 0.0253551 255 255 255 255 
0.00934403 -0.106781 0.197848 -0.147976 -0.52214 -0.839925 255 255 255 255 
-0.202089 -0.00321101 0.172142 -0.591252 0.124872 0.796761 255 255 255 255 
-0.0607698 0.0664032 0.0791986 -0.1448 0.0393334 -0.988679 255 255 255 255 
-0.157187 0.0739353 0.0133373 0.985151 0.00896402 -0.171455 255 255 255 255 
0.28484 -0.0698577 0.12124 -0.119158 -0.129405 -0.984406 255 255 255 255 
0.311753 -0.0511461 0.0706124 -0.913779 -0.35853 -0.190955 255 255 255 255 
-0.27922 -0.0729009 -0.102738 -0.786122 0.347205 -0.511332 255 255 255 255 
0.360831 -0.129999 -0.128048 -0.358753 -0.840489 0.406048 255 255 255 255 
0.115795 0.0059539 -0.150134 -0.0997422 -0.976457 0.191268 255 255 255 255 
0.00175264 0.0168021 0.10693 -0.151372 -0.959614 -0.237124 255 255 255 255 
0.217594 -0.0294168 -0.304213 -0.142016 0.757919 -0.636702 255 255 255 255 
-0.188773 0.0136923 -0.178759 0.417524 -0.612258 0.671427 255 255 255 255 
0.314499 -0.115624 -0.26394 0.456104 0.635814 -0.622663 255 255 255 255 
0.354475 -0.112504 -0.0844091 -0.393522 -0.863942 0.314237 255 255 255 255 
-0.127224 0.0628623 -0.0780399 0.496861 0.0148183 0.867703 255 255 255 255 
0.00243375 -0.110048 -0.286413 0.256296 -0.932346 -0.255034 255 255 255 255 
-0.280129 -0.0445547 -0.0521684 0.938156 -0.28538 0.196017 255 255 255 255 
-0.0184889 0.0277361 -0.223253 0.0406771 0.985556 -0.16439 255 255 255 255 
0.179417 0.0154752 -0.0119723 -0.131478 -0.989395 0.0617334 255 255 255 255 
-0.295053 -0.119365 -0.169767 -0.526565 0.784079 -0.328557 255 255 255 255 
0.155755 -0.0417475 -0.180938 -0.393179 0.918987 -0.0295436 255 255 255 255 
-0.239931 -0.0716422 0.148255 -0.376414 0.917967 0.125093 255 255 255 255 
-0.116415 -0.104987 -0.217929 0.0328748 -0.753262 0.656898 255 255 255 255 
0.357512 -0.104002 0.15227 0.0231959 -0.872193 0.488611 255 255 255 255 
-0.287848 -0.0422997 0.0621661 -0.927753 0.207827 0.309972 255 255 255 255 
-0.200815 0.0341179 -0.143392 -0.122983 0.986035 -0.112293 255 255 255 255 
-0.146456 -0.00894658 -0.210488 0.405508 -0.132237 0.904476 255 255 255 255 
-0.0327453 -0.122021 -0.240278 -0.133408 -0.618607 0.774291 255 255 255 255 
-0.239263 -0.130894 -0.226491 -0.115144 -0.857149 -0.502034 255 255 255 255 
0.0737939 -0.116026 0.224648 -0.218174 0.79534 0.56554 255 255 255 255 
0.0946164 0.0127096 0.114035 -0.104682 -0.979035 -0.174734 255 255 255 255 
-0.163689 -0.117582 -0.288367 -0.0946302 -0.76983 -0.631194 255 255 255 255 
-0.305891 -0.0972111 0.124047 -0.447738 0.884624 0.130272 255 255 255 255 
0.311268 -0.0510259 0.0588848 -0.919659 -0.356316 -0.165126 255 255 255 255 
0.0796004 0.0580476 0.0591259 0.0996892 0.224398 -0.969385 255 255 255 255 
0.239882 0.00920969 0.0950699 -0.279541 -0.959697 -0.0289482 255 255 255 255 
0.326108 -0.106606 -0.107765 -0.375068 -0.850855 0.367927 255 255 255 255 
0.118962 0.0143142 -0.147309 0.441053 0.275508 -0.854147 255 255 255 255 
0.192443 0.022624 -0.130076 0.260462 0.962238 -0.079101 255 255 255 255 
-0.259241 -0.0182385 0.0825808 0.853174 -0.206874 -0.478849 255 255 255 255 
-0.187796 -0.112128 0.23472 -0.452923 0.752483 0.478153 255 255 255 255 
0.111131 -0.0137821 0.137535 0.0740899 0.330935 0.94074 255 255 255 255 
-0.296233 -0.116064 0.00709098 0.754831 -0.655872 0.00786906 255 255 255 255 
-0.151669 -0.126051 -0.271196 -0.0235366 -0.785701 -0.618159 255 255 255 255 
-0.0559501 -0.0672801 0.198476 -0.0600596 -0.339334 -0.938746 255 255 255 255 
-0.249651 -0.0396918 -0.143175 -0.806749 0.236428 -0.541533 255 255 255 255 
-0.166886 -0.124782 0.228643 -0.14717 -0.901152 0.407758 255 255 255 255 
0.0301363 -0.0573555 0.175559 -0.457295 -0.13231 -0.879417 255 255 255 255 
0.123915 0.0163457 -0.0936294 -0.112159 -0.976553 0.18375 255 255 255 255 
-0.227479 0.034517 -0.0356549 -0.12485 0.991803 -0.0271965 255 255 255 255 
0.174901 -0.112923 0.217273 0.103323 -0.939403 -0.326875 255 255 255 255 
0.0864479 0.0166046 -0.0796655 -0.173769 -0.960403 0.217785 255 255 255 255 
0.178445 -0.0768124 0.232654 -0.395251 0.797456 0.455895 255 255 255 255 
0.229238 -0.0514512 0.168893 0.111745 0.969556 0.217887 255 255 255 255 
-0.253576 -0.0479121 -0.136178 -0.806742 0.304309 -0.506521 255 255 255 255 
0.160526 -0.0547156 -0.199553 -0.554296 0.485169 -0.676289 255 255 255 255 
-0.0115241 -0.107302 0.286744 0.0806869 0.706029 0.703572 255 255 255 255 
0.350681 -0.0948612 0.171097 0.0229867 -0.871952 0.489051 255 255 255 255 
0.00517986 -0.0327782 0.188613 -0.35749 -0.155363 -0.920904 255 255 255 255 
0.203694 0.0153146 -0.0973469 -0.152232 -0.982204 0.110003 255 255 255 255 
0.170328 -0.0728857 -0.197387 0.408159 -0.903843 0.128352 255 255 255 255 
0.052638 -0.11104 -0.242798 0.622079 0.612053 -0.488272 255 255 255 255 
0.0601954 -0.0663343 0.151996 -0.533832 -0.178885 -0.826452 255 255 255 255 
0.162041 0.00626189 -0.144394 -0.233719 0.481694 -0.844599 255 255 255 255 
-0.222591 0.0355166 0.0194434 -0.116623 0.992972 0.0201249 255 255 255 255 
-0.140144 0.0303175 0.188511 -0.0782063 0.9754 0.206103 255 255 255 255 
-0.246466 -0.0455677 0.131042 -0.737511 0.157083 0.656812 255 255 255 255 
0.0985471 -0.0987598 0.131098 -0.345167 -0.458252 -0.819063 255 255 255 255 
0.0702788 -0.00402634 0.147904 0.185883 0.39973 0.897588 255 255 255 255 
-0.106694 -0.0793039 -0.218571 0.143758 -0.130621 0.980954 255 255 255 255 
-0.17724 -0.103358 -0.239638 0.552696 0.820309 -0.147037 255 255 255 255 
0.319282 -0.0796438 -0.160655 0.447745 0.550877 -0.704314 255 255 255 255 
-0.302615 -0.0926711 0.159423 -0.373996 0.920135 0.116096 255 255 255 255 
0.321793 -0.111034 0.00779974 -0.978055 -0.189253 -0.087127 255 255 255 255 
-0.103158 0.0123374 0.166895 0.031354 -0.967582 -0.250604 255 255 255 255 
-0.194889 0.0140276 0.0761255 0.241833 -0.963998 -0.110562 255 255 255 255 
-0.0444017 0.0145199 -0.162389 -0.0719542 -0.956647 0.282223 255 255 255 255 
0.136875 0.0139984 -0.108112 -0.103609 -0.977145 0.185616 255 255 255 255 
-0.112425 0.0955969 0.0665431 0.496409 0.075234 -0.864822 255 255 255 255 
-0.284055 0.00679895 0.0179357 0.187848 -0.982024 -0.0185166 255 255 255 255 
0.161962 0.0309528 0.0253868 0.0505257 0.998508 0.0206931 255 255 255 255 
-0.0694626 0.0199693 0.192789 -0.0723163 -0.230862 -0.970295 255 255 255 255 
0.0342514 0.0359839 -0.0518801 0.830958 0.551439 -0.0736474 255 255 255 255 
0.223782 -0.0506008 0.149091 0.0871409 0.511377 0.854927 255 255 255 255 
-0.184229 0.0267023 -0.0551305 0.325984 -0.925562 0.192535 255 255 255 255 
-0.278456 -0.053113 -0.0612749 0.927996 -0.298691 0.222725 255 255 255 255 
0.13373 -0.119172 -0.232858 -0.567712 0.514968 -0.64227 255 255 255 255 
0.0609037 -0.120697 0.22486 -0.0220993 0.76324 0.645737 255 255 255 255 
-0.0478586 -0.0665683 0.198591 -0.0986614 -0.305526 -0.947059 255 255 255 255 
0.148443 0.0094676 0.129034 -0.0620114 -0.983779 -0.168323 255 255 255 255 
-0.166974 -0.100622 -0.200915 0.461516 -0.127157 0.877972 255 255 255 255 
0.128011 0.0352715 -0.0646992 0.0623228 0.994591 0.0830971 255 255 255 255 
0.0384102 0.0750782 -0.114548 0.0268116 0.198228 -0.979789 255 255 255 255 
0.31485 -0.0634548 0.0938916 -0.915487 -0.321027 -0.242538 255 255 255 255 
-0.202712 0.00839045 0.157324 0.121952 -0.985848 -0.115027 255 255 255 255 
-0.0135698 0.0220919 -0.107073 -0.197544 -0.899255 0.390279 255 255 255 255 
-0.00722317 0.0168275 0.105874 -0.146638 -0.948461 -0.280924 255 255 255 255 
0.0242736 0.0163811 0.120474 -0.135821 -0.975271 -0.174356 255 255 255 255 
0.2929 -0.124034 -0.163353 -0.304281 -0.801624 0.514599 255 255 255 255 
0.156606 -0.0117479 -0.142274 -0.0262316 -0.192649 0.980917 255 255 255 255 
0.352449 -0.0787887 0.114026 0.728019 0.670897 0.141019 255 255 255 255 
-0.0164557 -0.0171554 0.194137 -0.248266 -0.191627 -0.949549 255 255 255 255 
0.233571 0.0138457 -0.0484828 -0.24502 -0.968687 0.040131 255 255 255 255 
-0.260811 -0.0974132 -0.168397 -0.532323 0.766312 -0.35972 255 255 255 255 
-0.0296389 -0.111072 -0.293775 0.150968 -0.898398 -0.41242 255 255 255 255 
-0.244888 -0.0689805 0.110338 0.810677 -0.206155 -0.548 255 255 255 255 
-0.0969358 -0.0804714 0.220949 -0.209476 0.73883 0.640507 255 255 255 255 
0.260245 -0.0877665 -0.251198 -0.634334 -0.766682 -0.0990954 255 255 255 255 
-0.154432 0.040495 -0.0471896 0.93776 -0.019637 0.346729 255 255 255 255 
0.0244089 0.0599683 0.0576643 0.145601 0.250615 -0.957075 255 255 255 255 
0.0310967 -0.111857 -0.2288 -0.139741 -0.957241 0.253301 255 255 255 255 
-0.245596 -0.101865 -0.1964 -0.464348 0.768087 -0.440934 255 255 255 255 
-0.0327177 -0.0327927 -0.241715 0.241784 0.129862 -0.961601 255 255 255 255 
-0.127633 0.0282138 -0.089427 0.186551 -0.900725 0.392291 255 255 255 255 
-0.0697899 0.0174633 0.108824 -0.038044 -0.898131 -0.438079 255 255 255 255 
0.111955 -0.0856411 -0.140328 -0.0869311 -0.382239 0.919965 255 255 255 255 
0.298698 -0.0452939 0.121817 -0.843237 -0.428379 -0.32472 255 255 255 255 
-0.0546415 0.0331653 0.122426 -0.000310725 0.988685 0.150007 255 255 255 255 
0.326701 -0.10093 0.187319 0.336048 0.879942 0.335818 255 255 255 255 
-0.0563345 0.0304788 -0.204394 0.0129584 0.992533 -0.121288 255 255 255 255 
-0.273391 -0.0947435 0.0684349 0.795337 -0.526527 -0.300346 255 255 255 255 
-0.285356 -0.0489904 0.00746912 0.914582 -0.399288 -0.0641044 255 255 255 255 
0.143142 -0.107786 0.15349 0.774714 -0.631473 -0.0325466 255 255 255 255 
0.337846 -0.104286 0.214138 0.321406 0.890942 0.320813 255 255 255 255 
0.0160995 0.117376 0.0371302 0.906386 0.342858 0.246804 255 255 255 255 
0.166024 -0.126293 0.243909 0.0972027 -0.948097 -0.302761 255 255 255 255 
-0.207572 0.0117941 0.0914954 0.201157 -0.974771 -0.0967279 255 255 255 255 
0.314183 -0.0641989 0.0400137 -0.946588 -0.291904 -0.136978 255 255 255 255 
0.0854509 -0.125297 -0.241255 -0.527951 -0.848892 -0.0255197 255 255 255 255 
0.00187274 0.0575945 -0.0636149 -0.69697 -0.0194044 0.716837 255 255 255 255 
-0.190338 -0.107973 -0.18671 0.570198 -0.23889 0.786006 255 255 255 255 
-0.14875 0.0393477 -0.0583006 0.746837 -0.0380537 0.663917 255 255 255 255 
-0.0834756 0.0184083 -0.178252 0.0255067 -0.950173 0.310677 255 255 255 255 
0.0956324 -0.129477 -0.271545 -0.548462 -0.834733 -0.0491017 255 255 255 255 
0.109537 -0.101329 -0.187191 -0.482421 0.566001 -0.668516 255 255 255 255 
-0.258013 -0.0816273 -0.112582 0.845163 -0.339089 0.413181 255 255 255 255 
-0.0551818 0.0310945 -0.197757 0.0119297 0.99276 -0.119522 255 255 255 255 
0.0851838 -0.087682 -0.154609 -0.477911 0.524923 -0.704313 255 255 255 255 
0.0435085 -0.112762 -0.286527 0.305039 -0.631293 -0.713036 255 255 255 255 
0.250627 -0.111631 0.226596 -0.173635 -0.934699 -0.310142 255 255 255 255 
0.274767 -0.0604864 -0.202414 0.56087 0.682941 -0.467992 255 255 255 255 
-0.279868 -0.0849673 0.152393 -0.3406 0.938418 0.0580009 255 255 255 255 
-0.234135 -0.113155 0.140035 0.324797 -0.86176 -0.389714 255 255 255 255 
-0.104459 -0.10537 -0.279055 -0.18955 0.74978 0.633956 255 255 255 255 
0.135583 -0.0985073 -0.292421 0.536882 -0.435127 -0.722788 255 255 255 255 
-0.137954 0.0287283 -0.097143 -0.642311 0.171043 -0.747115 255 255 255 255 
-0.0900719 0.0180402 0.104871 0.0215518 -0.896321 -0.442882 255 255 255 255 
0.321438 -0.0973839 0.172694 0.236326 0.862817 0.446874 255 255 255 255 
-0.155626 0.0696682 -0.0424418 0.967566 -0.00771061 0.252501 255 255 255 255 
0.0344216 0.0202241 -0.0222967 -0.362296 -0.8949 0.260567 255 255 255 255 
-0.0748689 0.0182465 -0.23513 -0.0095072 0.433661 -0.901026 255 255 255 255 
0.0725106 -0.0937246 -0.292641 0.320306 -0.616876 -0.718935 255 255 255 255 
-0.259175 0.0332481 0.0111399 -0.14835 0.988827 0.014639 255 255 255 255 
0.339958 -0.116156 0.218718 0.0887152 -0.916717 -0.389564 255 255 255 255 
-0.205401 -0.0923051 -0.28279 0.570525 0.805547 -0.159986 255 255 255 255 
0.0890125 -0.105348 -0.175155 -0.462387 0.579444 -0.67115 255 255 255 255 
0.27727 -0.0910154 -0.257751 0.474472 0.613822 -0.630951 255 255 255 255 
0.0389396 -0.0362306 -0.185399 -0.475434 -0.392088 0.787547 255 255 255 255 
0.142935 -0.110728 -0.265055 0.764655 -0.64437 -0.00946535 255 255 255 255 
-0.184454 -0.112079 -0.285002 -0.402932 0.725956 -0.557345 255 255 255 255 
-0.0570975 0.0527421 -0.0967998 -0.166135 -0.0430117 0.985164 255 255 255 255 
0.294261 -0.0157128 0.0182887 -0.716988 -0.695005 -0.0538262 255 255 255 255 
0.186269 0.0153209 -0.00430954 -0.140361 -0.988898 0.0487769 255 255 255 255 
0.0305163 0.0388045 -0.069474 0.135183 0.251096 0.958476 255 255 255 255 
-0.028604 0.0918445 0.0740848 -0.733972 0.0494699 -0.677376 255 255 255 255 
0.134393 -0.066316 0.12017 0.0214441 -0.136908 -0.990352 255 255 255 255 
-0.0397678 -0.0304245 0.198885 -0.157579 -0.200971 -0.96684 255 255 255 255 
-0.161556 0.115463 -0.0588141 -0.327011 0.925044 -0.193281 255 255 255 255 
-0.120117 -0.0396518 0.208045 -0.244736 0.292257 0.924495 255 255 255 255 
-0.22194 -0.0943546 -0.157616 0.667309 -0.205612 0.715836 255 255 255 255 
-0.152743 0.0273813 -0.0844661 -0.666683 0.166241 -0.726566 255 255 255 255 
-0.216737 0.0145207 -0.159114 0.68924 -0.243601 0.682354 255 255 255 255 
0.0240889 0.00932887 -0.153385 -0.13692 -0.958367 0.250571 255 255 255 255 
0.167016 -0.0694538 0.132617 0.815133 -0.579207 -0.00875617 255 255 255 255 
-0.221927 0.0114163 0.0637789 0.227033 -0.970224 -0.0843849 255 255 255 255 
0.255277 0.0119694 -0.139929 0.248257 0.960764 -0.123701 255 255 255 255 
-0.27812 -0.0832726 -0.0604417 0.871099 -0.440247 0.217645 255 255 255 255 
-0.235458 0.0329627 0.104098 -0.216434 0.965202 0.14677 255 255 255 255 
-0.070296 0.106532 -0.0981497 -0.00626448 0.150977 0.988517 255 255 255 255 
0.223284 -0.0288419 -0.297442 0.299584 0.953901 -0.0179871 255 255 255 255 
0.272905 -0.115535 0.216629 -0.218434 -0.941451 -0.256821 255 255 255 255 
-0.217986 0.0145243 0.00621319 0.357367 -0.933667 -0.02357 255 255 255 255 
-0.276902 -0.0289202 -0.0587801 0.942476 -0.252242 0.219348 255 255 255 255 
0.228827 0.0145808 -0.0447933 -0.227291 -0.972973 0.040772 255 255 255 255 
-0.0916286 0.10218 0.0746806 0.449419 0.296049 -0.842839 255 255 255 255 
0.286953 -0.0481256 0.136495 0.20489 0.317314 0.925922 255 255 255 255 
0.211562 0.00546226 0.133717 0.0475721 0.378746 0.924277 255 255 255 255 
0.0122626 0.0247533 0.0256658 -0.320365 -0.938922 0.125665 255 255 255 255 
-0.148318 0.118877 -0.0642636 -0.313896 0.930681 -0.187891 255 255 255 255 
-0.0593807 0.0240608 0.0826953 -0.0968912 -0.878464 -0.467881 255 255 255 255 
-0.214227 0.0357727 0.0252933 -0.114179 0.993158 0.0245108 255 255 255 255 
-0.26775 -0.0177496 -0.1108 -0.877674 0.240783 -0.41438 255 255 255 255 
0.282078 -0.000390219 0.0865803 -0.826657 -0.516742 -0.222745 255 255 255 255 
0.151104 0.0382965 -0.0917308 0.217183 0.976069 0.0110235 255 255 255 255 
-0.0308249 0.0142023 -0.152994 -0.104203 -0.948128 0.300325 255 255 255 255 
-0.139608 0.111254 -0.0715683 0.479831 0.0665587 0.874833 255 255 255 255 
-0.114828 -0.0311946 -0.218371 0.195218 -0.0908727 0.976541 255 255 255 255 
-0.164793 0.0168389 0.104328 0.178061 -0.969635 -0.167637 255 255 255 255 
-0.00983202 0.0606169 0.0521142 -0.746559 0.0231307 -0.664917 255 255 255 255 
0.337865 -0.11743 -0.0199325 0.282152 -0.873194 -0.397394 255 255 255 255 
0.262 -0.0842804 -0.208877 -0.615629 -0.787698 -0.0230827 255 255 255 255 
-0.207341 -0.0471599 0.155498 0.621838 -0.0886453 -0.778113 255 255 255 255 
0.0157722 -0.105978 0.277501 0.449945 -0.864156 0.225352 255 255 255 255 
-0.174408 0.0132275 0.139815 0.116921 -0.983816 -0.135777 255 255 255 255 
-0.270881 0.0276989 -0.0180613 0.95814 -0.283666 0.0387537 255 255 255 255 
-0.0840925 0.0262303 0.0837803 0.0250755 -0.870017 -0.492383 255 255 255 255 
-0.162693 -0.0541897 0.189633 -0.437035 0.508615 0.741829 255 255 255 255 
0.015529 -0.0246245 -0.196532 -0.455221 -0.371585 0.809134 255 255 255 255 
0.177192 -0.0616681 0.135959 0.0897325 -0.968948 -0.230406 255 255 255 255 
0.259428 -0.0724783 0.197671 0.51801 0.842337 0.148774 255 255 255 255 
0.163749 -0.0616463 -0.281249 -0.506092 0.787111 0.3526 255 255 255 255 
-0.00540901 0.0874315 -0.0718655 -0.588902 -0.000720095 0.808204 255 255 255 255 
-0.0580442 0.0808555 -0.0977098 -0.135823 0.0190148 0.990551 255 255 255 255 
-0.0272234 -0.126825 0.224923 0.105639 -0.701761 -0.704536 255 255 255 255 
-0.199795 -0.0766686 -0.190191 -0.367422 0.767548 -0.525235 255 255 255 255 
0.207947 0.0329477 0.105512 0.0858166 0.993136 0.0794805 255 255 255 255 
0.30201 -0.0605729 0.135721 0.228139 0.346707 0.909806 255 255 255 255 
0.151719 -0.0885988 0.221963 -0.374556 0.816785 0.438827 255 255 255 255 
0.146066 -0.0404344 0.121257 0.0227519 -0.12095 -0.992398 255 255 255 255 
0.371102 -0.116271 -0.0695515 0.678101 -0.720753 -0.143852 255 255 255 255 
-0.00379818 0.0236461 -0.121524 -0.00162729 0.187921 -0.982183 255 255 255 255 
-0.138764 0.0184256 0.108173 0.120965 -0.955691 -0.26837 255 255 255 255 
0.0589681 0.0176186 0.0450689 -0.263885 -0.958203 0.110508 255 255 255 255 
0.152697 -0.0816054 -0.194381 0.380932 -0.912297 0.150352 255 255 255 255 
0.280841 -0.105768 -0.272792 0.465734 0.614032 -0.637226 255 255 255 255 
-0.22265 0.0218539 0.133201 0.627053 -0.162319 -0.761878 255 255 255 255 
0.168486 -0.0796302 0.227698 -0.394072 0.802801 0.447458 255 255 255 255 
-0.0624155 0.0144305 -0.210321 0.00158742 -0.252243 0.967663 255 255 255 255 
-0.157042 0.0169242 0.113342 0.144569 -0.972069 -0.184884 255 255 255 255 
0.031636 0.0205845 0.00548609 -0.349388 -0.911695 0.216193 255 255 255 255 
0.357483 -0.102734 -0.199502 0.585089 0.666117 -0.462557 255 255 255 255 
0.274488 -0.0625512 -0.183025 0.537056 0.554737 -0.635482 255 255 255 255 
0.341789 -0.11271 -0.0228969 0.247725 -0.876685 -0.412378 255 255 255 255 
-0.280905 -0.017679 -0.00324104 0.946354 -0.32308 -0.00572738 255 255 255 255 
-0.0384362 0.0903178 -0.093004 -0.324464 0.0121649 0.94582 255 255 255 255 
0.33675 -0.119084 -0.12684 -0.354511 -0.836645 0.417549 255 255 255 255 
0.0434264 0.0609286 0.0900695 0.014891 0.320135 0.947255 255 255 255 255 
-0.110295 -0.0944016 -0.27015 -0.471905 0.837079 -0.276774 255 255 255 255 
0.254788 -0.0764228 -0.260869 0.490075 0.617079 -0.615662 255 255 255 255 
-0.0825427 0.0278849 0.202655 -0.0243093 0.969569 0.243608 255 255 255 255 
0.02827 -0.116752 0.227117 0.18095 0.700841 0.689984 255 255 255 255 
0.0920586 0.0114745 -0.126187 -0.111148 -0.975301 0.190875 255 255 255 255 
0.052641 -0.112987 -0.226903 -0.262696 -0.951942 0.157474 255 255 255 255 
-0.177097 -0.104703 -0.261373 -0.416407 0.758256 -0.50165 255 255 255 255 
0.379054 -0.0953332 0.0774711 0.815119 0.575061 -0.0698987 255 255 255 255 
-0.0871765 -0.0494575 -0.219832 0.0810243 -0.164443 0.983053 255 255 255 255 
-0.158183 0.119842 0.0295992 -0.541279 0.788826 0.291154 255 255 255 255 
0.174123 -0.067838 -0.242989 0.639148 -0.768871 -0.0180972 255 255 255 255 
-0.269117 -0.0890591 0.072145 0.807196 -0.485746 -0.33539 255 255 255 255 
0.0686353 0.0209856 -0.172865 0.460568 0.464684 -0.756271 255 255 255 255 
-0.281905 -0.0352576 -0.0382862 0.948178 -0.282344 0.145739 255 255 255 255 
0.139615 0.0164426 0.0807798 -0.108272 -0.991837 -0.0673517 255 255 255 255 
0.257571 0.0057056 0.132328 0.129698 0.276313 0.952276 255 255 255 255 
-0.214323 0.0196762 0.140527 0.600824 -0.159958 -0.783214 255 255 255 255 
-0.219998 -0.112673 0.226006 -0.39469 0.744542 0.538403 255 255 255 255 
0.213857 0.015451 -0.00247991 -0.199472 -0.979529 0.0270907 255 255 255 255 
-0.209198 0.012923 0.0625933 0.249065 -0.964018 -0.0929328 255 255 255 255 
0.173458 -0.0535729 0.175666 -0.391174 0.90257 0.17986 255 255 255 255 
-0.177126 0.016262 -0.104124 0.225134 -0.926336 0.302021 255 255 255 255 
-0.275515 -0.000648898 -0.0485389 0.955589 -0.240705 0.170031 255 255 255 255 
-0.126641 -0.0978218 0.242449 -0.277466 0.752776 0.596943 255 255 255 255 
0.115807 -0.0103833 -0.153348 0.478908 0.251726 -0.841 255 255 255 255 
0.0868957 -0.0375905 0.139685 0.0688249 0.417281 0.906168 255 255 255 255 
-0.248339 0.0251634 0.0883634 0.840444 -0.195195 -0.505522 255 255 255 255 
0.357657 -0.102678 -0.0516894 -0.395633 -0.865034 0.308528 255 255 255 255 
-0.0758782 -0.137104 0.27213 0.0618867 -0.820942 0.567648 255 255 255 255 
-0.0858313 0.00128371 -0.215445 0.0452838 -0.201946 0.978349 255 255 255 255 
-0.203395 -0.0852927 0.185358 0.451778 0.642966 -0.618458 255 255 255 255 
0.31917 -0.103485 0.0577628 -0.983354 -0.138166 -0.118004 255 255 255 255 
0.0934448 0.0433229 0.0984194 0.0421303 0.351297 0.935316 255 255 255 255 
0.0731838 0.00486628 0.147185 0.22196 0.439734 0.870269 255 255 255 255 
0.176396 -0.0674067 0.217803 -0.397073 0.814502 0.422989 255 255 255 255 
0.14329 -0.0665894 -0.188549 -0.53593 0.482734 -0.692638 255 255 255 255 
0.211254 0.0311214 -0.0227553 0.0785346 0.996911 -0.00122721 255 255 255 255 
-0.11531 -0.0677922 0.205325 -0.2561 0.668488 0.698239 255 255 255 255 
-0.0224339 -0.0540007 0.209514 0.177563 0.249355 0.951995 255 255 255 255 
0.261943 -0.0825261 0.14537 -0.853879 -0.48785 -0.181364 255 255 255 255 
0.268961 -0.0903644 0.156402 0.240818 0.473071 0.847473 255 255 255 255 
0.296769 -0.0817022 0.145797 0.459723 0.836777 0.297421 255 255 255 255 
-0.0139289 -0.0533802 -0.209924 -0.171357 -0.466965 0.867514 255 255 255 255 
0.0752373 0.072054 -0.114393 0.0428506 0.206589 -0.977489 255 255 255 255 
0.0405168 0.0190821 0.0356982 -0.300444 -0.944356 0.133887 255 255 255 255 
-0.117754 -0.129984 0.220233 0.0072488 -0.688884 -0.724835 255 255 255 255 
-0.277737 -0.000157128 -0.0155827 0.95689 -0.287571 0.0407989 255 255 255 255 
0.283196 -0.106846 0.146444 -0.281762 -0.939093 -0.196763 255 255 255 255 
0.0924239 -0.0735532 0.122833 -0.386297 -0.399876 -0.831188 255 255 255 255 
-0.248384 -0.063568 -0.130562 -0.67222 0.622846 -0.400228 255 255 255 255 
0.0631128 0.0169742 -0.0432376 -0.334898 -0.900579 0.277128 255 255 255 255 
0.0963852 -0.0952148 0.170577 -0.0720818 0.763024 0.642338 255 255 255 255 
0.0754576 0.0165004 0.0108421 -0.31781 -0.925982 0.203848 255 255 255 255 
-0.0738933 0.0779454 0.0801825 0.218531 0.0510148 -0.974496 255 255 255 255 
0.268556 -0.105304 0.174266 -0.297474 -0.927271 -0.227326 255 255 255 255 
-0.129318 0.0204632 -0.1846 0.157327 -0.866104 0.47446 255 255 255 255 
-0.245048 0.0340578 0.0353618 -0.127827 0.991212 0.0340504 255 255 255 255 
-0.0207691 0.109595 -0.0852093 -0.478069 0.00683935 0.878296 255 255 255 255 
-0.219125 0.035733 -0.00102337 -0.120524 0.992698 0.00489019 255 255 255 255 
0.0533825 0.0791226 -0.114004 0.04024 0.206895 -0.977535 255 255 255 255 
-0.0150433 0.0104187 0.176606 -0.110748 -0.935784 -0.334728 255 255 255 255 
0.0899378 0.0354693 0.103286 0.0527023 0.364891 0.929558 255 255 255 255 
-0.154134 0.0282734 0.0569739 -0.796843 0.0587898 0.601319 255 255 255 255 
-0.294595 -0.122948 0.0899835 0.5554 -0.749948 -0.359317 255 255 255 255 
-0.185052 -0.0372699 0.170876 0.517282 -0.112365 -0.848406 255 255 255 255 
-0.0295784 0.0154181 0.112275 -0.116054 -0.917399 -0.380672 255 255 255 255 
0.0148976 0.00984725 0.167769 -0.119417 -0.954979 -0.271579 255 255 255 255 
-0.159678 0.112201 -0.0167219 0.999948 0.0047951 0.00898193 255 255 255 255 
-0.167142 -0.00386618 -0.200176 0.476663 -0.184133 0.859586 255 255 255 255 
0.240278 -0.0405371 -0.161281 0.339773 -0.927266 0.157262 255 255 255 255 
0.0117396 0.0724248 0.00602802 -0.970992 0.0159344 -0.238581 255 255 255 255 
0.383799 -0.103459 0.0620176 0.813259 0.56963 -0.118877 255 255 255 255 
0.308304 -0.0216528 0.114584 0.816302 0.549913 0.176767 255 255 255 255 
-0.236428 -0.0873939 0.122947 0.778008 -0.259029 -0.572371 255 255 255 255 
-0.265334 -0.0676878 -0.0987655 0.888636 -0.281898 0.361744 255 255 255 255 
0.0346972 -0.104875 0.174552 -0.322338 -0.626772 -0.709405 255 255 255 255 
-0.0878392 -0.118431 -0.236284 0.00410536 -0.712285 0.701879 255 255 255 255 
-0.0347201 0.095684 0.076471 -0.640856 0.0517066 -0.765918 255 255 255 255 
-0.185724 0.0344901 0.0735671 -0.0926259 0.99398 0.0585182 255 255 255 255 
-0.25498 -0.0823403 -0.213185 0.264647 0.957865 0.111611 255 255 255 255 
0.0406535 0.0195242 0.0142607 -0.337559 -0.919733 0.200364 255 255 255 255 
0.271666 0.010286 0.101849 -0.820542 -0.514728 -0.248527 255 255 255 255 
0.121371 0.00868432 -0.136159 -0.0995524 -0.976065 0.193353 255 255 255 255 
0.00471055 -0.0394503 -0.230892 0.312433 0.120695 -0.942241 255 255 255 255 
0.14588 -0.108312 -0.241501 0.748414 -0.663229 -0.00171801 255 255 255 255 
-0.290084 -0.111546 -0.040207 0.778765 -0.612283 0.136509 255 255 255 255 
0.0153781 -0.0302563 0.183793 -0.401289 -0.151203 -0.903385 255 255 255 255 
-0.195252 0.0241088 -0.0334218 0.378342 -0.923143 0.0682893 255 255 255 255 
-0.00368665 0.0329555 0.0445301 0.217183 0.319336 -0.922419 255 255 255 255 
-0.297196 -0.127784 0.167079 -0.532813 -0.776421 0.336574 255 255 255 255 
0.235877 -0.018569 -0.15189 -0.0800044 -0.424876 0.901709 255 255 255 255 
0.33141 -0.0619299 0.103158 0.725848 0.655328 0.209021 255 255 255 255 
0.321178 -0.10801 -0.117832 -0.356346 -0.836717 0.415839 255 255 255 255 
0.0525636 0.0398511 -0.107123 0.690699 0.328436 0.644255 255 255 255 255 
-0.276294 0.0310011 0.0165355 -0.173629 0.984596 0.0205927 255 255 255 255 
0.315484 -0.0642562 -0.0336719 -0.952974 -0.29866 -0.0514119 255 255 255 255 
0.113382 -0.108014 0.233336 -0.314111 0.818749 0.480609 255 255 255 255 
0.0686773 0.0348359 -0.0685638 0.0411914 0.996744 0.069312 255 255 255 255 
-0.227464 0.033271 -0.106092 -0.118901 0.989836 -0.0780189 255 255 255 255 
0.111829 -0.111959 -0.229321 -0.518612 0.769063 0.37361 255 255 255 255 
0.0213652 -0.100183 -0.211012 -0.312999 -0.640823 0.700983 255 255 255 255 
0.167538 0.032169 -0.0300483 0.0458418 0.997811 0.047657 255 255 255 255 
-0.0894889 -0.0801681 0.2226 -0.201763 0.744336 0.636597 255 255 255 255 
0.35262 -0.0758329 0.0320838 0.751894 0.644715 -0.137832 255 255 255 255 
-0.269857 -0.0516593 -0.0888255 0.91165 -0.249342 0.326685 255 255 255 255 
0.0187561 -0.0789053 -0.200928 -0.351841 -0.562389 0.748282 255 255 255 255 
0.150694 -0.0725449 0.172344 -0.3677 0.812662 0.452081 255 255 255 255 
-0.103501 0.0150686 -0.201578 0.0979728 -0.894218 0.436779 255 255 255 255 
0.0926836 -0.115462 0.255072 -0.525874 -0.806378 0.270576 255 255 255 255 
0.241525 -0.0285486 0.122328 -0.0662574 -0.0957211 -0.993201 255 255 255 255 
-0.273217 -0.083042 0.121858 -0.414113 0.904087 0.10553 255 255 255 255 
0.187081 0.0161527 -0.0420981 -0.121229 -0.989451 0.079312 255 255 255 255 
0.1597 0.0159749 0.0398036 -0.151748 -0.988163 0.0224861 255 255 255 255 
0.35503 -0.105739 0.191393 0.134282 0.858436 0.495032 255 255 255 255 
-0.374982 -0.105168 -0.0249843 -0.628511 -0.775399 -0.0610824 255 255 255 255 
-0.163758 -0.0430682 -0.204932 0.430173 -0.0895455 0.898294 255 255 255 255 
0.00966198 0.0599539 -0.0530742 -0.863963 0.00125548 0.503554 255 255 255 255 
0.372793 -0.116387 -0.111933 0.632468 -0.747603 -0.202668 255 255 255 255 
-0.140697 -0.0446156 -0.213684 0.313398 -0.0747758 0.946673 255 255 255 255 
0.343859 -0.0724375 0.100655 0.70992 0.677901 0.190957 255 255 255 255 
-0.261311 -0.117101 -0.207232 -0.46837 0.770032 -0.433221 255 255 255 255 
0.14637 -0.0623023 -0.186446 -0.527032 0.482501 -0.699592 255 255 255 255 
0.380628 -0.122057 0.150893 0.710758 -0.701542 0.0516028 255 255 255 255 
-0.123687 0.0220206 -0.155358 0.104201 -0.923798 0.368429 255 255 255 255 
-0.13347 -0.00194043 0.189965 0.275538 -0.240505 -0.930718 255 255 255 255 
-0.105082 0.0211003 -0.170019 0.0697417 -0.929952 0.361007 255 255 255 255 
0.00647524 0.0736154 -0.0657462 0.740248 0.207806 0.639413 255 255 255 255 
0.114141 0.0302567 -0.00366514 0.042956 0.999077 -0.000135669 255 255 255 255 
-0.275119 -0.0506974 0.0469074 0.88067 -0.393648 -0.263555 255 255 255 255 
-0.0611578 0.0134076 0.157027 -0.0208678 -0.952431 -0.304038 255 255 255 255 
0.365751 -0.132062 0.035868 0.420892 -0.861552 -0.283864 255 255 255 255 
0.00189256 0.0172437 0.0947858 -0.166619 -0.957158 -0.236825 255 255 255 255 
-0.0972029 0.0135299 0.154564 0.0254577 -0.96192 -0.272141 255 255 255 255 
0.192395 -0.0435885 -0.307382 0.166683 -0.67502 -0.718724 255 255 255 255 
-0.0209831 -0.109042 -0.299969 0.206005 -0.859742 -0.46734 255 255 255 255 
-0.132593 -0.0940514 0.23806 -0.32546 0.766238 0.554036 255 255 255 255 
0.30681 -0.077602 -0.165904 0.448706 0.528761 -0.720468 255 255 255 255 
-0.280359 -0.100217 0.0585759 0.768378 -0.602675 -0.215354 255 255 255 255 
0.311028 -0.073164 -0.132047 -0.951557 -0.279536 0.128055 255 255 255 255 
-0.237945 -0.0842892 0.119312 0.779071 -0.288111 -0.556812 255 255 255 255 
0.346183 -0.107879 0.223847 0.332853 0.889953 0.311758 255 255 255 255 
-0.257377 -0.068753 0.0936319 -0.514518 0.83402 0.199203 255 255 255 255 
-0.198879 0.0140188 -0.173064 0.497065 -0.512929 0.699879 255 255 255 255 
0.08249 -0.111675 -0.177437 -0.455598 0.593083 -0.663839 255 255 255 255 
-0.0199646 -0.105073 -0.226841 -0.165164 -0.630942 0.758045 255 255 255 255 
0.283937 -0.00348936 0.0508206 -0.669379 -0.738136 -0.0841799 255 255 255 255 
0.12708 -0.0209417 -0.14941 0.476908 0.250077 -0.842627 255 255 255 255 
-0.221273 0.017388 -0.0680284 0.329335 -0.938964 0.0994277 255 255 255 255 
0.155506 0.0143554 -0.10686 -0.105169 -0.979367 0.17257 255 255 255 255 
-0.338262 -0.122387 -0.0579973 -0.611006 -0.784496 -0.106011 255 255 255 255 
0.038221 -0.100948 0.249865 0.457931 -0.861286 0.220196 255 255 255 255 
0.193963 0.0149953 -0.105635 -0.130805 -0.982306 0.134031 255 255 255 255 
0.0644005 -0.059125 0.148479 -0.543574 -0.161465 -0.823684 255 255 255 255 
0.162917 -0.0174671 -0.158178 -0.292389 0.481635 -0.826158 255 255 255 255 
-0.26158 -0.0929836 0.0869006 0.776332 -0.489172 -0.397515 255 255 255 255 
-0.0363488 0.0114697 -0.184475 -0.0580979 -0.971038 0.231756 255 255 255 255 
-0.143728 0.0597389 0.0439043 0.807811 0.0261252 -0.588863 255 255 255 255 
0.14963 0.0155306 0.019504 -0.161888 -0.985057 0.0587737 255 255 255 255 
-0.0187211 -0.0818231 0.213863 0.238503 0.512073 0.825165 255 255 255 255 
0.0764159 -0.108827 0.25009 -0.545573 -0.796551 0.260493 255 255 255 255 
0.108466 0.0339475 -0.0598806 0.0406367 0.9958 0.0820373 255 255 255 255 
0.00338419 0.0478707 -0.117471 0.00231391 0.187893 -0.982187 255 255 255 255 
0.0701948 0.0167849 0.0747772 -0.175257 -0.98452 0.00214483 255 255 255 255 
-0.266623 0.0134159 -0.0794536 0.910332 -0.21917 0.351084 255 255 255 255 
0.156511 -0.0589183 -0.199356 -0.55723 0.483785 -0.674867 255 255 255 255 
-0.255429 -0.0893844 -0.158166 -0.550508 0.751837 -0.362881 255 255 255 255 
0.298722 -0.0837766 -0.201505 0.478696 0.597877 -0.642956 255 255 255 255 
-0.0572651 0.0291236 0.177049 -0.00250337 0.991107 0.133045 255 255 255 255 
0.0759709 -0.120241 -0.238517 -0.508843 -0.860529 -0.0238263 255 255 255 255 
-0.129815 0.0254966 0.0740545 0.219414 -0.90015 -0.37628 255 255 255 255 
0.383867 -0.113907 0.00511695 0.620827 -0.763367 -0.17845 255 255 255 255 
0.323969 -0.115896 0.189453 -0.0650408 -0.955073 -0.289145 255 255 255 255 
0.292503 -0.113898 0.171947 -0.240958 -0.948168 -0.207164 255 255 255 255 
0.0976735 -0.132343 -0.242659 -0.534112 -0.8453 -0.013843 255 255 255 255 
0.319909 -0.0943446 -0.00195271 -0.97125 -0.220998 -0.0885115 255 255 255 255 
-0.0789823 -0.0990743 -0.226513 -0.0293494 -0.470083 0.882134 255 255 255 255 
-0.0816322 0.0629646 -0.0978708 0.145555 0.0169844 0.989204 255 255 255 255 
0.335884 -0.124091 0.115282 0.0242784 -0.872912 0.487273 255 255 255 255 
-0.186872 0.0368043 -0.0788811 -0.112754 0.991676 -0.0621764 255 255 255 255 
-0.274708 -0.0185657 -0.0636124 0.941544 -0.236222 0.240197 255 255 255 255 
-0.214007 -0.117607 -0.259277 -0.261029 -0.77218 -0.579312 255 255 255 255 
0.311238 -0.0448011 -0.0376083 -0.907042 -0.419283 -0.0384219 255 255 255 255 
-0.090474 0.0466441 0.0752386 0.342905 0.0163766 -0.939228 255 255 255 255 
0.122654 -0.0851936 -0.182989 -0.510871 0.516344 -0.687314 255 255 255 255 
0.0592001 -0.0479252 -0.193409 0.576158 0.255668 -0.776322 255 255 255 255 
-0.253123 -0.061841 0.0976585 0.831739 -0.218948 -0.510169 255 255 255 255 
0.0178949 0.0294772 -0.0399798 -0.350217 -0.890964 0.289017 255 255 255 255 
0.154162 0.0350484 0.0857567 0.14302 0.989584 0.0163982 255 255 255 255 
0.190816 -0.04794 0.180491 -0.0836196 0.989053 0.12158 255 255 255 255 
-0.00163986 -0.0792106 0.190257 -0.236922 -0.293767 -0.92605 255 255 255 255 
0.0137521 0.00876324 -0.171195 -0.106302 -0.968107 0.226867 255 255 255 255 
-0.250759 0.0320068 0.0798202 -0.190136 0.976665 0.0998703 255 255 255 255 
-0.224616 0.0133947 0.00396272 0.347914 -0.937385 -0.0162504 255 255 255 255 
0.276744 -0.0021005 -0.0332967 -0.544561 -0.838691 0.00708468 255 255 255 255 
0.274672 0.00446065 0.130983 0.151572 0.261904 0.953117 255 255 255 255 
-0.158518 0.106553 -0.0294774 0.99568 0.00156378 0.0928382 255 255 255 255 
0.164759 -0.0754574 -0.236953 -0.616787 0.473387 -0.62887 255 255 255 255 
0.0474685 0.00404523 -0.168627 -0.132242 -0.965287 0.225241 255 255 255 255 
0.0806062 -0.11644 0.223238 -0.24244 0.79832 0.551278 255 255 255 255 
-0.20727 -0.017472 0.168581 -0.616912 0.127633 0.776614 255 255 255 255 
-0.191586 -0.104831 0.231929 0.968288 -0.247624 0.0331781 255 255 255 255 
-0.231694 -0.0826729 -0.176655 -0.492601 0.757787 -0.427906 255 255 255 255 
-0.174596 -0.0875034 -0.210206 -0.377103 0.785655 -0.490448 255 255 255 255 
-0.0224772 -0.0647181 0.195199 -0.206648 -0.231408 -0.950656 255 255 255 255 
-0.259782 -0.108613 0.200306 -0.401816 0.748487 0.527552 255 255 255 255 
0.385704 -0.118985 0.0483632 0.620682 -0.775461 -0.115816 255 255 255 255 
-0.159053 0.101603 0.00359736 0.994745 0.00933906 -0.101955 255 255 255 255 
0.0236676 0.0197811 -0.0981496 -0.247716 -0.91748 0.311235 255 255 255 255 
-0.269474 -0.0169763 -0.0841196 0.918483 -0.213824 0.332669 255 255 255 255 
0.118089 0.0172762 0.0368235 -0.178461 -0.982443 0.0543878 255 255 255 255 
0.0123953 0.0955376 0.00438033 -0.967835 0.0405684 -0.248292 255 255 255 255 
0.288115 -0.00803583 0.0432634 -0.680217 -0.729395 -0.072714 255 255 255 255 
0.241949 -0.0571589 0.137637 0.0440901 -0.987174 -0.153441 255 255 255 255 
0.0882206 -0.053097 0.137564 0.0434412 0.52262 0.851458 255 255 255 255 
-0.0701402 0.0164472 -0.180843 0.000242427 -0.960847 0.277078 255 255 255 255 
0.200959 0.0155921 -0.00416862 -0.161446 -0.986199 0.0366957 255 255 255 255 
0.278676 -0.109549 0.174212 -0.278696 -0.935348 -0.217838 255 255 255 255 
0.152301 -0.098203 -0.214862 0.669836 -0.742026 0.0267672 255 255 255 255 
-0.0274243 -0.030761 -0.21121 -0.0894988 -0.381286 0.920115 255 255 255 255 
0.290061 -0.0117658 -0.0390233 -0.685003 -0.728533 -0.00342585 255 255 255 255 
0.225933 0.0277358 -0.0621685 0.218292 0.975667 -0.0205555 255 255 255 255 
-0.16306 -0.088351 -0.214094 -0.416813 0.799622 -0.432287 255 255 255 255 
-0.0026994 0.043916 0.0438222 -0.862026 0.00879185 -0.506788 255 255 255 255 
0.334272 -0.0890603 -0.0433545 -0.39595 -0.865042 0.308101 255 255 255 255 
0.10828 -0.0827738 0.120262 -0.20326 -0.335196 -0.919961 255 255 255 255 
-0.0338577 -0.128879 0.279177 0.327147 -0.873721 0.359983 255 255 255 255 
0.181707 -0.110117 0.217413 0.0785876 -0.940465 -0.33068 255 255 255 255 
0.0568526 0.0534127 -0.118161 0.0295886 0.203134 -0.978704 255 255 255 255 
0.0834361 0.0136448 0.110792 -0.117783 -0.982568 -0.143831 255 255 255 255 
-0.261809 -0.0775492 -0.106589 0.867152 -0.307699 0.391623 255 255 255 255 
0.380842 -0.120698 0.126409 0.70803 -0.705802 0.023148 255 255 255 255 
0.0895639 -0.0303511 0.139689 0.0756713 0.384776 0.919903 255 255 255 255 
0.349859 -0.081777 -0.0378181 0.79812 0.58977 -0.123185 255 255 255 255 
0.040145 -0.0868567 -0.227816 0.571576 0.621863 -0.535338 255 255 255 255 
0.346226 -0.0707348 0.0309276 0.754025 0.643335 -0.132537 255 255 255 255 
0.059286 0.0112884 0.138628 -0.131753 -0.97677 -0.168999 255 255 255 255 
-0.281939 -0.0576918 0.0206638 0.885468 -0.448662 -0.12103 255 255 255 255 
0.159896 -0.0528735 -0.192495 -0.528373 0.486628 -0.695712 255 255 255 255 
0.105192 -0.108967 -0.148749 -0.255581 -0.577636 0.775251 255 255 255 255 
-0.263188 -0.0927405 -0.107052 0.823025 -0.442532 0.356083 255 255 255 255 
-0.0459799 0.0310892 -0.199091 0.0156528 0.992275 -0.123063 255 255 255 255 
0.168291 -0.0481102 0.123557 0.0215694 -0.121703 -0.992332 255 255 255 255 
-0.14619 -0.0738686 -0.210619 0.320467 -0.0614884 0.945262 255 255 255 255 
0.273586 -0.106919 0.181993 -0.423275 -0.851475 -0.309563 255 255 255 255 
-0.316563 -0.133431 -0.0802295 -0.608622 -0.78464 -0.11798 255 255 255 255 
-0.287187 -0.122058 -0.0899441 0.662447 -0.693976 0.282066 255 255 255 255 
-0.304102 -0.0717754 -0.0126647 -0.981084 0.151875 -0.120036 255 255 255 255 
-0.0924218 0.0283252 0.077719 0.0895992 -0.856766 -0.507862 255 255 255 255 
0.0782103 -0.121348 -0.182234 -0.423756 -0.658336 0.622113 255 255 255 255 
0.0525671 0.0179231 0.0397682 -0.285009 -0.949801 0.129026 255 255 255 255 
-0.0510972 0.0326664 0.126877 0.000119501 0.988863 0.148829 255 255 255 255 
-0.0548558 -0.147053 0.243475 0.130945 -0.735725 -0.664502 255 255 255 255 
0.117985 0.0376231 0.0655169 0.11011 0.99388 -0.00883466 255 255 255 255 
-0.158249 -0.0955808 -0.228398 -0.451943 0.80829 -0.377378 255 255 255 255 
-0.0614489 0.0248842 0.19092 -0.0943952 -0.226518 -0.969422 255 255 255 255 
0.000662358 0.0199578 0.076109 -0.193278 -0.958237 -0.210772 255 255 255 255 
-0.211597 -0.0677014 0.161788 -0.522957 0.585311 0.619618 255 255 255 255 
0.225264 0.0164227 0.117847 -0.0303339 -0.131938 -0.990794 255 255 255 255 
0.0268557 -0.108169 0.218614 0.200438 0.694116 0.691396 255 255 255 255 
0.0728537 -0.0751899 0.15055 0.10499 0.685433 0.720526 255 255 255 255 
-0.0983386 -0.0729144 -0.22283 -0.347175 0.832794 -0.431187 255 255 255 255 
0.0743755 0.0326249 0.0152936 0.0518131 0.997761 -0.0422825 255 255 255 255 
0.269248 -0.0898484 -0.262892 0.476869 0.610445 -0.632418 255 255 255 255 
-0.135842 -0.115968 0.272769 -0.289608 0.776376 0.559793 255 255 255 255 
0.0902178 0.044087 0.0573845 0.0995807 0.224871 -0.969287 255 255 255 255 
0.234786 -0.0440572 -0.184777 0.372378 -0.918112 0.135665 255 255 255 255 
0.211659 -0.0500737 -0.153411 0.322978 -0.931218 0.168871 255 255 255 255 
-0.0685869 -0.0525204 -0.219662 0.00847527 -0.276494 0.960978 255 255 255 255 
-0.203649 0.0190925 -0.0707758 0.312013 -0.933405 0.177208 255 255 255 255 
0.198054 -0.0256426 -0.213758 -0.253474 0.967337 -0.00303803 255 255 255 255 
-0.0338145 -0.0755242 -0.23158 -0.172636 0.885343 -0.431699 255 255 255 255 
-0.210995 0.0199827 -0.0442661 0.357269 -0.931118 0.0733426 255 255 255 255 
-0.0067728 0.0255476 0.174937 0.00503329 0.987949 0.154699 255 255 255 255 
-0.227027 0.0163377 -0.0723566 0.327685 -0.940651 0.0883094 255 255 255 255 
0.0751435 0.0133747 -0.112271 -0.138746 -0.968867 0.205052 255 255 255 255 
-0.135564 0.0177825 0.113995 0.104248 -0.957702 -0.268214 255 255 255 255 
-0.362505 -0.0978651 -0.0713862 -0.316825 0.874536 -0.367164 255 255 255 255 
-0.286174 -0.0464074 -0.00456505 0.927843 -0.372804 -0.0111745 255 255 255 255 
0.152598 -0.0916817 0.231347 -0.36469 0.81741 0.445918 255 255 255 255 
0.325716 -0.0478762 0.0273491 0.785352 0.610182 -0.104404 255 255 255 255 
0.320222 -0.0991399 0.00779193 -0.974389 -0.204676 -0.0931274 255 255 255 255 
0.0475042 -0.115927 -0.251271 -0.171245 -0.971214 0.165587 255 255 255 255 
