ply
format ascii 1.0
comment VCGLIB generated
element vertex 608
property float x
property float y
property float z
property float nx
property float ny
property float nz
property uchar red
property uchar green
property uchar blue
property uchar alpha
element face 0
property list uchar int vertex_indices
end_header
0.184378 0.00229487 0.0513545 0.000808064 -0.000253942 1 255 255 255 255 
-0.352487 0.0511584 -0.0361961 -0.99996 0.00171859 -0.00874187 255 255 255 255 
-0.220739 -0.273095 0.0508439 -0.0195561 -0.004236 0.9998 255 255 255 255 
-0.0619419 0.119434 0.051303 -0.00174987 0.000477796 0.999998 255 255 255 255 
0.163241 0.237286 0.0515 0.00122337 0.00503598 0.999987 255 255 255 255 
0.196528 0.0367241 0.0513536 0.001125 0.000338979 0.999999 255 255 255 255 
-0.353659 0.175576 -0.040832 -0.996965 0.07742 -0.0081864 255 255 255 255 
-0.171679 -0.213809 -0.0512377 -0.00304919 -0.00341352 -0.99999 255 255 255 255 
-0.0804813 0.322028 -0.0512721 -0.000407571 0.0147252 -0.999892 255 255 255 255 
0.0856489 0.248078 -0.051307 0.000861667 0.00420286 -0.999991 255 255 255 255 
-0.0645237 -0.185936 0.051309 -0.000341719 -0.00290816 0.999996 255 255 255 255 
0.0303603 0.307933 -0.0510702 0.000644563 0.00535656 -0.999985 255 255 255 255 
-0.181677 0.246252 0.0512872 -0.0034012 0.00232207 0.999992 255 255 255 255 
-0.174662 0.218903 -0.0512531 -0.000283062 0.0072632 -0.999974 255 255 255 255 
0.143652 -0.271101 -0.049545 0.0165738 -0.00199078 -0.999861 255 255 255 255 
0.135751 0.201921 0.0513996 0.000900402 0.00306594 0.999995 255 255 255 255 
0.330173 -0.121142 -0.0510181 0.0149829 -0.00223356 -0.999885 255 255 255 255 
0.05373 0.35248 -0.0195635 -8.45669e-005 0.999923 0.0124048 255 255 255 255 
-0.0312089 -0.197494 -0.0513387 -9.59444e-007 -0.000822258 -1 255 255 255 255 
-0.0591643 -0.0449917 -0.0512209 -3.52683e-005 0.000182441 -1 255 255 255 255 
-0.231392 0.121311 0.0513182 -0.00246441 0.00155428 0.999996 255 255 255 255 
-0.239401 -0.0889551 -0.0512566 -0.00251548 -0.00129974 -0.999996 255 255 255 255 
0.0258207 -0.294476 0.0513687 -0.00066117 -0.00517488 0.999986 255 255 255 255 
-0.192486 0.236944 0.0512588 -0.0037117 0.00241556 0.99999 255 255 255 255 
0.0907655 0.200268 -0.0513275 0.000309213 0.00175367 -0.999998 255 255 255 255 
0.158617 0.0528294 -0.0512645 0.000139013 0.000246129 -1 255 255 255 255 
-0.124903 -0.0690033 -0.0512469 -0.000230807 0.000121029 -1 255 255 255 255 
0.103584 0.293507 -0.0511369 0.00161561 0.0072618 -0.999972 255 255 255 255 
0.194643 -0.0867531 -0.0513882 0.00171706 -0.00102384 -0.999998 255 255 255 255 
-0.144555 -0.139998 0.0513073 -0.000407574 -0.00256514 0.999997 255 255 255 255 
-0.148261 -0.316568 -0.0509818 -0.00222834 -0.00571379 -0.999981 255 255 255 255 
-0.151558 -0.12034 -0.0513029 -0.000777737 -0.000415963 -1 255 255 255 255 
0.335147 -0.0606212 0.051309 0.00591235 -0.00119638 0.999982 255 255 255 255 
-0.0744851 0.261011 0.0515945 -0.00115521 0.00481807 0.999988 255 255 255 255 
0.0893398 0.140573 0.05134 0.000245061 0.00153186 0.999999 255 255 255 255 
-0.169039 0.0277111 0.0513268 -0.00129989 0.000172469 0.999999 255 255 255 255 
-0.335618 -0.21006 -0.00590677 -0.147513 -0.988744 -0.0249856 255 255 255 255 
-0.0420831 0.0403032 0.0512974 -0.00122673 5.00927e-005 0.999999 255 255 255 255 
-0.0645179 0.115474 -0.0512023 1.51459e-005 7.67783e-005 -1 255 255 255 255 
0.199897 -0.15674 -0.0516656 0.00853519 -0.00674976 -0.999941 255 255 255 255 
-0.0970339 0.304978 -0.0515362 -0.00025984 0.0144841 -0.999895 255 255 255 255 
-0.157232 -0.352971 0.00785364 7.38584e-005 -1 0.000845866 255 255 255 255 
-0.35277 -0.114235 0.0384949 -0.999943 -0.0049322 -0.00949394 255 255 255 255 
-0.18943 -0.352888 -0.0321274 -9.27845e-005 -0.999438 -0.033511 255 255 255 255 
-0.353056 0.0601294 0.028037 -0.999791 0.00273739 0.020253 255 255 255 255 
0.327603 -0.167857 0.0523597 0.0345288 -0.0158083 0.999279 255 255 255 255 
-0.341757 0.0993236 -0.0509281 -0.00505219 0.001927 -0.999985 255 255 255 255 
-0.237984 -0.151559 -0.0450077 -0.812531 0.582918 -0.000849241 255 255 255 255 
0.00758277 0.252205 0.0514217 -0.000120258 0.00387697 0.999992 255 255 255 255 
-0.214624 0.327815 -0.0398784 -0.999745 0.0223766 0.00304971 255 255 255 255 
0.165634 -0.308854 0.0511981 0.0024805 -0.00616765 0.999978 255 255 255 255 
0.354139 -0.0933522 0.00011372 0.999755 -0.013696 0.0173757 255 255 255 255 
-0.178774 0.304667 0.0513029 -0.00241871 0.00399614 0.999989 255 255 255 255 
0.0249895 -0.134825 0.05131 -4.54366e-005 -0.00228303 0.999997 255 255 255 255 
-0.137482 -0.00885761 -0.0512343 -0.000289506 0.000136193 -1 255 255 255 255 
-0.0745873 -0.0748041 -0.0512328 -5.87862e-005 0.000176059 -1 255 255 255 255 
-0.245785 0.0421426 0.0513484 -0.0021331 0.000397574 0.999998 255 255 255 255 
0.0789331 -0.352158 0.031585 0.00111691 -0.999989 0.00447861 255 255 255 255 
-0.0746687 0.230817 -0.0513578 -0.000973902 0.0036038 -0.999993 255 255 255 255 
0.294365 0.0934077 -0.0515949 0.00493784 0.00928869 -0.999945 255 255 255 255 
-0.298929 0.111839 0.0512655 -0.00370956 0.00123965 0.999992 255 255 255 255 
0.142077 0.00319377 0.0513454 0.000332892 -0.00041828 1 255 255 255 255 
0.273076 0.148171 0.0513678 0.00329291 0.00185139 0.999993 255 255 255 255 
0.258643 -0.216854 -0.0301701 0.128867 -0.991616 0.00951531 255 255 255 255 
0.153173 -0.292457 -0.0487352 0.0228182 0.00646224 -0.999719 255 255 255 255 
0.0905475 -0.185707 0.0513096 0.000142098 -0.00289965 0.999996 255 255 255 255 
0.187499 -0.352462 -0.0243131 0.0308811 -0.999522 0.00138123 255 255 255 255 
0.331595 -0.0357301 -0.0510673 0.0166753 -0.000395344 -0.999861 255 255 255 255 
0.147271 -0.167061 0.0513509 0.000340892 -0.00328482 0.999995 255 255 255 255 
-0.237952 -0.0179599 -0.0513242 -0.00310024 -0.000186113 -0.999995 255 255 255 255 
-0.10377 -0.188146 -0.0513433 -0.000729768 -0.00116603 -0.999999 255 255 255 255 
-0.352136 -0.0526055 -5.46996e-005 -0.999964 -0.000640185 -0.00840902 255 255 255 255 
0.287305 0.00203544 -0.0513426 0.00703622 0.000345625 -0.999975 255 255 255 255 
-0.20443 -0.0185845 -0.0513076 -0.0016026 2.77381e-005 -0.999999 255 255 255 255 
-0.352067 -0.0165757 -0.0174447 -0.999989 -4.18012e-005 -0.00468967 255 255 255 255 
-0.267249 0.0297001 0.0513598 -0.00270767 0.000227556 0.999996 255 255 255 255 
-0.17075 -0.167782 0.0513052 -0.000944646 -0.0029766 0.999995 255 255 255 255 
0.23811 0.177395 -0.0521635 0.00527812 0.0388725 -0.99923 255 255 255 255 
-0.175576 -0.25366 -0.0511079 -0.00328362 -0.0042116 -0.999986 255 255 255 255 
0.0657963 0.348243 0.0510483 0.000216788 0.0216574 0.999765 255 255 255 255 
0.300355 -0.0308316 0.0513768 0.00332397 -0.000677464 0.999994 255 255 255 255 
-0.0925469 0.292088 -0.0514583 -0.000595295 0.0106808 -0.999943 255 255 255 255 
-0.181879 -0.169421 0.0513058 -0.00109703 -0.00315086 0.999994 255 255 255 255 
0.238963 0.176768 0.0512915 0.00215653 0.00254553 0.999994 255 255 255 255 
-0.0865343 -0.0531954 -0.0512263 -7.80541e-005 0.000184953 -1 255 255 255 255 
0.0903852 -0.292295 0.0513033 -7.32352e-005 -0.0042762 0.999991 255 255 255 255 
0.300798 0.202682 0.0511817 0.00289816 0.00213307 0.999994 255 255 255 255 
-0.0475599 -0.29522 -0.051384 -0.000619499 -0.00855351 -0.999963 255 255 255 255 
-0.148206 0.304385 0.0514307 -0.00200427 0.005677 0.999982 255 255 255 255 
-0.352827 0.0470319 0.0327512 -0.999716 0.00168943 0.0237537 255 255 255 255 
0.30497 -0.143158 -0.0510684 0.0108586 -0.00394841 -0.999933 255 255 255 255 
0.352428 0.0351714 0.0281892 0.999965 1.5839e-005 -0.0083356 255 255 255 255 
0.353108 -0.0883649 0.0373862 0.999611 -0.0101871 0.0259778 255 255 255 255 
0.00565442 0.28113 0.0514162 -3.72826e-005 0.00520573 0.999986 255 255 255 255 
-0.244351 -0.222093 0.0373949 -0.335983 -0.941283 0.0331887 255 255 255 255 
0.212045 0.317931 0.0189058 0.998417 0.0562478 -0.000545565 255 255 255 255 
-0.0399903 -0.177139 0.0513046 -0.000224043 -0.00279324 0.999996 255 255 255 255 
0.0231264 0.281748 -0.0511987 0.000393168 0.00440128 -0.99999 255 255 255 255 
0.32212 -0.206003 -0.050276 0.011182 -0.00712481 -0.999912 255 255 255 255 
-0.0973968 -0.0131049 0.0513125 -0.000901436 -0.000460513 1 255 255 255 255 
-0.353941 0.0987905 0.00796946 -0.999929 0.0111052 0.00438238 255 255 255 255 
-0.0023654 -0.309172 0.0514482 -0.000884958 -0.00869575 0.999962 255 255 255 255 
-0.0661522 0.334234 0.0513708 -0.000441756 0.0162308 0.999868 255 255 255 255 
0.182972 -0.258345 -0.0494908 0.0107488 -0.0160025 -0.999814 255 255 255 255 
0.202945 -0.186293 0.0516365 0.0013768 -0.011643 0.999931 255 255 255 255 
0.121332 -0.306899 -0.0507305 0.0262835 0.00562094 -0.999639 255 255 255 255 
0.202221 0.20503 0.0513338 0.00177262 0.0032263 0.999993 255 255 255 255 
-0.0854534 0.352078 -0.0443475 -0.000550716 0.99995 -0.00994256 255 255 255 255 
-0.269479 0.183926 -0.0510905 -0.00234222 0.00525881 -0.999983 255 255 255 255 
-0.218702 -0.251758 -0.00811269 -0.986572 -0.161902 -0.0215191 255 255 255 255 
-0.146885 0.0663722 -0.0512504 -0.000328656 0.000277756 -1 255 255 255 255 
0.263176 -0.21518 0.0425985 0.141311 -0.989784 0.0189617 255 255 255 255 
0.302787 -0.0755921 0.0515041 0.00550014 -0.00163824 0.999984 255 255 255 255 
0.352469 0.207567 -0.0195199 0.999928 0.0111789 -0.00428716 255 255 255 255 
-0.0756766 -0.195505 -0.0513442 -0.000417142 -0.00106525 -0.999999 255 255 255 255 
-0.0532604 0.31051 -0.0511828 -0.000450191 0.00822542 -0.999966 255 255 255 255 
-0.342446 0.123198 -0.0509284 -0.00412458 0.00255003 -0.999988 255 255 255 255 
0.209518 -0.342539 0.0347071 0.997249 -0.0737125 -0.00778149 255 255 255 255 
0.0458422 0.00758409 -0.0512142 -7.00498e-005 0.000190658 -1 255 255 255 255 
-0.0773269 0.069639 0.0512942 -0.0015052 0.00050853 0.999999 255 255 255 255 
0.237949 0.129177 -0.0517334 0.00227233 0.0124176 -0.99992 255 255 255 255 
0.158733 0.198704 -0.0514182 0.00195729 0.00841952 -0.999963 255 255 255 255 
-0.0672234 0.251918 0.0515529 -0.00112035 0.00400042 0.999991 255 255 255 255 
-0.309533 -0.211782 -0.0321611 -0.152237 -0.98776 -0.0339582 255 255 255 255 
0.00668043 0.192088 -0.0512731 -4.66663e-005 0.000648933 -1 255 255 255 255 
-0.0416853 0.352141 0.0332158 -0.000108276 0.999837 0.0180353 255 255 255 255 
-0.260703 0.212733 -0.0438953 -0.356271 0.934346 -0.00832162 255 255 255 255 
0.096232 -0.0838107 0.0513238 -7.65988e-005 -0.0016675 0.999999 255 255 255 255 
-0.214147 0.325051 0.0398399 -0.999617 0.0219638 0.0168692 255 255 255 255 
0.276211 0.162493 -0.0460445 0.323889 0.941248 -0.0956425 255 255 255 255 
-0.171092 -0.0186468 0.0513246 -0.000981728 -0.000669861 0.999999 255 255 255 255 
0.0142612 0.202112 -0.051282 -3.86729e-005 0.000917913 -1 255 255 255 255 
0.169561 0.351743 -0.0406315 -0.000660991 1 -0.000210762 255 255 255 255 
-0.29379 -0.0909141 0.051643 -0.00601558 -0.00259312 0.999979 255 255 255 255 
0.13573 -0.270598 -0.0498719 0.0172414 -0.00107912 -0.999851 255 255 255 255 
-0.0688752 0.352014 0.0445325 -0.000245834 0.999916 0.012954 255 255 255 255 
0.316977 -0.0222719 -0.0512089 0.0123757 -0.00015026 -0.999923 255 255 255 255 
0.353511 -0.0733444 -0.0370922 0.999952 -0.00742265 0.00633599 255 255 255 255 
0.0640998 -0.232264 0.051325 -0.000185007 -0.00325785 0.999995 255 255 255 255 
-0.317799 -0.147803 -0.0509446 -0.00278529 -0.00411461 -0.999988 255 255 255 255 
0.047933 0.182917 -0.0512641 -2.63651e-005 0.000604802 -1 255 255 255 255 
-0.231419 0.227167 -0.0440235 -0.506717 0.862101 -0.00446638 255 255 255 255 
0.171451 0.17436 -0.0515382 0.00171238 0.00820809 -0.999965 255 255 255 255 
-0.126648 0.279922 0.0515408 -0.00194899 0.00504203 0.999985 255 255 255 255 
0.345464 0.0151965 0.051224 0.00873977 -9.37882e-005 0.999962 255 255 255 255 
-0.00140233 0.28878 0.0514131 -5.62959e-005 0.00563316 0.999984 255 255 255 255 
-0.195698 -0.329982 -0.050838 -0.00284553 -0.00458989 -0.999985 255 255 255 255 
-0.176171 0.201001 0.0512884 -0.00309008 0.00193761 0.999993 255 255 255 255 
0.236575 0.160618 -0.0520626 0.00383186 0.0254196 -0.99967 255 255 255 255 
-0.110023 0.311053 0.051586 -0.00128709 0.0106794 0.999942 255 255 255 255 
-0.0930743 0.212658 -0.0513483 -0.000929428 0.00293081 -0.999995 255 255 255 255 
0.18227 0.247094 0.0514843 0.00139234 0.0055639 0.999984 255 255 255 255 
-0.0215482 0.117938 0.0513366 -0.00137967 0.00029241 0.999999 255 255 255 255 
0.226252 -0.277352 0.0497169 0.00380272 -0.0278796 0.999604 255 255 255 255 
-0.264066 0.226041 -0.0509349 -0.00139848 0.00931903 -0.999956 255 255 255 255 
-0.222581 -0.25591 -0.0508534 -0.0040433 -0.00433537 -0.999982 255 255 255 255 
-0.138952 -0.110135 -0.0512853 -0.000506745 -0.000173587 -1 255 255 255 255 
-0.0840901 -0.35233 -0.0314332 -0.000132729 -0.999921 -0.0125427 255 255 255 255 
0.123683 -0.343271 -0.0512193 0.0287963 0.00786786 -0.999554 255 255 255 255 
0.0548508 0.25089 0.0514769 0.000184506 0.00476316 0.999989 255 255 255 255 
0.132938 0.140274 0.051335 0.000666559 0.0017057 0.999998 255 255 255 255 
-0.203336 0.070228 0.0513257 -0.00173749 0.000866505 0.999998 255 255 255 255 
0.0589261 -0.177527 0.0513056 5.38499e-005 -0.00275372 0.999996 255 255 255 255 
0.0614578 0.0117362 -0.0512138 -7.22978e-005 0.000151226 -1 255 255 255 255 
0.00515961 0.127662 -0.0512094 -1.8792e-005 1.37986e-005 -1 255 255 255 255 
0.00479677 0.140123 0.0513715 -0.000894906 0.000748981 0.999999 255 255 255 255 
0.0565347 0.339771 -0.0508573 0.000964888 0.0064121 -0.999979 255 255 255 255 
0.12504 -0.256584 0.0513087 0.000331931 -0.00437123 0.99999 255 255 255 255 
-0.019728 -0.198878 -0.051342 8.74057e-005 -0.000832497 -1 255 255 255 255 
-0.244327 -0.230683 0.0508371 -0.00649173 -0.00823391 0.999945 255 255 255 255 
0.313392 0.0633423 0.051675 0.0141609 0.000584391 0.9999 255 255 255 255 
0.164309 0.190351 0.0513659 0.00128168 0.0027986 0.999995 255 255 255 255 
0.135033 0.213803 -0.0513495 0.00153065 0.00522593 -0.999985 255 255 255 255 
-0.0415292 0.0880232 -0.0511872 5.76834e-006 0.000108833 -1 255 255 255 255 
0.10159 -0.352453 -0.0477477 0.00428275 -0.999979 -0.00485448 255 255 255 255 
0.215711 0.255207 0.0361714 0.981095 0.193527 -0.000778802 255 255 255 255 
0.0159276 -0.34348 -0.0512284 0.00237221 -0.0135922 -0.999905 255 255 255 255 
0.286007 0.216132 0.0212716 0.0284497 0.999349 -0.0221702 255 255 255 255 
-0.317013 -0.00530296 0.0513219 -0.00521433 -0.000185198 0.999986 255 255 255 255 
-0.290965 -0.213463 -0.0506786 -0.00399022 -0.00631227 -0.999972 255 255 255 255 
0.352381 0.110495 -0.00329504 0.99996 0.00187321 -0.00871675 255 255 255 255 
0.142755 0.351682 0.0418271 -0.000672226 0.999989 0.00469478 255 255 255 255 
0.00161948 0.352665 -0.0479683 -3.10113e-005 0.999966 0.00821678 255 255 255 255 
0.0939126 0.328945 -0.0509127 0.00134526 0.00792212 -0.999968 255 255 255 255 
-0.0238613 -0.0170799 0.0513082 -0.000796029 -0.000563103 1 255 255 255 255 
-0.027437 0.352551 -0.0240309 -7.05752e-005 0.999983 0.00588791 255 255 255 255 
-0.202764 0.354524 0.0124954 -0.012342 0.999788 -0.0165124 255 255 255 255 
0.207161 0.351765 0.00749202 -0.000823187 1 0.000293655 255 255 255 255 
-0.228724 0.259265 -0.050747 0.00217746 0.00939374 -0.999954 255 255 255 255 
-0.100316 0.352421 0.0306282 -0.000777206 0.99997 0.00769994 255 255 255 255 
-0.322525 -0.211279 -0.0376062 -0.135164 -0.989454 -0.0520687 255 255 255 255 
0.101374 -0.0985893 -0.0512446 0.000274868 -0.000154924 -1 255 255 255 255 
0.292055 -0.214098 -0.00794881 0.0779645 -0.996853 0.0143641 255 255 255 255 
-0.354323 0.150195 -0.0300125 -0.998879 0.0456378 -0.0125805 255 255 255 255 
0.215205 0.269136 -0.0494675 0.00528637 0.0377002 -0.999275 255 255 255 255 
0.0455806 -0.0604202 0.0513203 -0.000363128 -0.00131535 0.999999 255 255 255 255 
-0.240697 -0.256996 0.0505688 -0.0132015 -0.00624797 0.999893 255 255 255 255 
0.192829 0.351746 -0.0332611 -0.000732857 1 -0.000265883 255 255 255 255 
0.192809 -0.272424 0.0508131 0.00242715 -0.0129446 0.999913 255 255 255 255 
0.301488 -0.214575 -0.0499502 0.0167185 -0.011035 -0.999799 255 255 255 255 
-0.251722 0.216721 -0.0144668 -0.324251 0.945948 -0.0066929 255 255 255 255 
0.0142177 -0.0821118 -0.0512289 5.80021e-005 0.000118613 -1 255 255 255 255 
-0.101755 0.132999 0.0512898 -0.00195746 0.000987753 0.999998 255 255 255 255 
0.0933446 0.228858 -0.0513375 0.000759123 0.00335208 -0.999994 255 255 255 255 
-0.35449 0.152721 -0.0171835 -0.998775 0.0490394 -0.00664293 255 255 255 255 
0.35231 -0.0079312 0.0231205 0.999998 -0.000424298 -0.00188965 255 255 255 255 
-0.2339 0.0490973 -0.0513541 -0.00335491 0.00056412 -0.999994 255 255 255 255 
-0.108105 0.0191047 0.0513094 -0.0011433 5.76234e-005 0.999999 255 255 255 255 
0.345479 0.215919 0.0402286 0.0277664 0.999476 -0.0166525 255 255 255 255 
0.19186 -0.248561 -0.0501347 0.0123475 -0.0197513 -0.999729 255 255 255 255 
-0.273009 0.118235 -0.0511753 -0.00349582 0.00250245 -0.999991 255 255 255 255 
-0.353858 0.140968 -0.0465326 -0.999065 0.0360131 -0.0239005 255 255 255 255 
-0.214255 -0.178626 -0.0511698 -0.00381593 -0.00353124 -0.999986 255 255 255 255 
0.0449678 0.256807 0.0514633 0.000129024 0.00481728 0.999988 255 255 255 255 
0.218705 -0.263966 0.0450433 0.698469 -0.217588 0.68176 255 255 255 255 
-0.346439 0.212738 0.0296866 -0.0435752 0.998992 -0.0107757 255 255 255 255 
0.188867 -0.300639 -0.0474207 0.0192728 0.00491702 -0.999802 255 255 255 255 
0.093953 -0.264651 -0.0513491 0.0116349 -0.0022325 -0.99993 255 255 255 255 
0.219076 0.23064 -0.0502678 0.00663369 0.0543963 -0.998497 255 255 255 255 
0.237376 -0.173085 0.0521921 0.00379319 -0.0173447 0.999842 255 255 255 255 
-0.268571 0.173066 -0.0511123 -0.00245659 0.0045932 -0.999986 255 255 255 255 
0.196223 -0.0688811 0.051376 0.000748226 -0.001378 0.999999 255 255 255 255 
-0.117427 -0.00279026 0.0513137 -0.000992124 -0.000307624 0.999999 255 255 255 255 
0.214653 0.29388 -0.0497883 0.00417158 0.0273448 -0.999617 255 255 255 255 
-0.334509 -0.209574 0.00965919 -0.16182 -0.986678 -0.0167804 255 255 255 255 
-0.352416 -0.0807625 0.0272694 -0.999962 -0.00168078 -0.0085913 255 255 255 255 
0.211331 0.334342 0.0368172 0.998563 0.0535955 -0.00048764 255 255 255 255 
-0.309547 -0.111362 -0.0510172 -0.00253905 -0.00268246 -0.999993 255 255 255 255 
0.0557228 0.211717 -0.0513005 4.69392e-005 0.00154885 -0.999999 255 255 255 255 
0.322988 -0.18722 -0.0505427 0.0100781 -0.00586704 -0.999932 255 255 255 255 
-0.102409 -0.0208429 0.0513145 -0.000853928 -0.00059086 0.999999 255 255 255 255 
0.194703 -0.272306 -0.048621 0.012558 -0.01459 -0.999815 255 255 255 255 
0.107889 -0.283059 0.0513086 0.000142076 -0.00432912 0.999991 255 255 255 255 
0.0284184 -0.343906 -0.0513196 0.00367449 -0.0133647 -0.999904 255 255 255 255 
-0.283037 -0.204887 -0.0507554 -0.00405767 -0.00594816 -0.999974 255 255 255 255 
0.211882 0.336023 -0.0143864 0.998984 0.0450555 -0.000560267 255 255 255 255 
0.211427 0.34881 -0.00737407 0.999042 0.0437598 -0.000514378 255 255 255 255 
-0.226552 -0.286294 0.0506435 -0.0231096 -0.00434414 0.999724 255 255 255 255 
-0.327978 0.132066 -0.0509809 -0.0037715 0.0028372 -0.999989 255 255 255 255 
0.181924 -0.289306 -0.0478612 0.0165112 -0.00143514 -0.999863 255 255 255 255 
-0.29271 0.212954 0.0182892 -0.094981 0.995437 -0.00911595 255 255 255 255 
0.337858 -0.052408 0.051282 0.00531001 -0.00102725 0.999985 255 255 255 255 
0.24779 0.243415 0.0512156 0.00201508 0.00389493 0.99999 255 255 255 255 
0.302206 0.219943 0.0511293 0.00272421 0.00229634 0.999994 255 255 255 255 
-0.0916933 -0.32645 0.0516057 -0.00255735 -0.0163845 0.999862 255 255 255 255 
0.213758 -0.342346 0.0463161 0.716347 -0.692673 0.0839697 255 255 255 255 
-0.013068 0.098764 0.0513263 -0.00129128 0.000128085 0.999999 255 255 255 255 
0.355701 -0.121706 -0.0132226 0.999304 -0.0343409 0.0145997 255 255 255 255 
0.353728 -0.185285 0.0206515 0.994346 -0.104826 0.016973 255 255 255 255 
-0.0978821 0.352211 0.0444928 -0.000712638 0.999941 0.0107907 255 255 255 255 
-0.020838 -0.351883 0.0469648 -0.000130994 -0.999996 0.00287331 255 255 255 255 
-0.274283 0.226057 -0.0508896 -0.00169476 0.00888073 -0.999959 255 255 255 255 
0.344856 0.182124 0.0511295 0.004261 0.00153928 0.99999 255 255 255 255 
-0.313409 -0.214965 -0.0506243 -0.00357031 -0.00675669 -0.999971 255 255 255 255 
0.0774926 -0.352298 -0.031012 0.00166746 -0.999982 -0.00581216 255 255 255 255 
0.318278 -0.205997 0.0523 0.0348317 -0.0454983 0.998357 255 255 255 255 
-0.320471 -0.21315 0.0509236 -0.00203488 -0.0392167 0.999229 255 255 255 255 
0.0781722 -0.299789 0.0512919 -0.000195788 -0.00434278 0.999991 255 255 255 255 
-0.15393 -0.352421 0.0421836 0.000128347 -0.999749 0.0223934 255 255 255 255 
-0.192938 0.274198 0.0405138 0.59077 0.783064 -0.194424 255 255 255 255 
0.237381 -0.245378 0.0494488 0.0038628 -0.0630731 0.998001 255 255 255 255 
-0.110129 -0.280042 -0.05123 -0.00180931 -0.00594252 -0.999981 255 255 255 255 
-0.345528 -0.0952431 -0.050954 -0.00250292 -0.00217489 -0.999995 255 255 255 255 
-0.13317 -0.0714299 0.0513157 -0.000569291 -0.00149199 0.999999 255 255 255 255 
0.308188 -0.121074 -0.051226 0.0126388 -0.00264645 -0.999917 255 255 255 255 
0.327216 0.118174 -0.0515423 0.00916182 0.0150151 -0.999845 255 255 255 255 
0.160374 -0.35225 0.0417492 0.0123871 -0.999833 0.0134436 255 255 255 255 
0.352383 0.0290315 0.0418807 0.999983 -2.25262e-005 -0.0058603 255 255 255 255 
0.0599566 -0.347194 0.0511321 -0.000302526 -0.00506322 0.999987 255 255 255 255 
0.0142351 -0.351891 0.0233579 -0.00012179 -1 0.000230976 255 255 255 255 
-0.352282 0.00467052 0.0332827 -0.999985 0.000311048 0.00554684 255 255 255 255 
-0.144176 -0.352632 -0.0340768 -0.000111856 -0.999687 -0.0250141 255 255 255 255 
-0.204374 -0.352502 -0.045313 -0.00149397 -0.973244 -0.229768 255 255 255 255 
0.24795 -0.253448 0.0486288 0.00424225 -0.071088 0.997461 255 255 255 255 
-0.352164 -0.0125899 0.0439581 -0.999998 5.2095e-007 0.00181414 255 255 255 255 
-0.200364 0.354564 -0.000793165 -0.0104902 0.999464 -0.0310059 255 255 255 255 
0.189472 0.351735 -0.045227 -0.000709927 1 -0.000392941 255 255 255 255 
0.170564 0.351763 0.00401307 -0.000754241 0.999999 0.000883649 255 255 255 255 
-0.208398 0.35381 -0.0255046 -0.0102335 0.997372 -0.0717294 255 255 255 255 
0.131114 0.351844 -0.0462389 -0.000456703 0.999999 0.000976604 255 255 255 255 
-0.214157 0.289406 0.0479574 -0.999009 0.0316702 0.0312629 255 255 255 255 
0.212273 0.320511 -0.00862212 0.998747 0.0500415 -0.000608878 255 255 255 255 
0.00344041 0.0612636 -0.0511917 -6.3798e-005 0.000236591 -1 255 255 255 255 
0.187448 0.123544 0.0513476 0.00135281 0.0016838 0.999998 255 255 255 255 
-0.348322 -0.105492 0.0514376 -0.0116998 -0.00423559 0.999923 255 255 255 255 
0.172783 -0.352723 -0.00599274 0.0221074 -0.999744 0.00480122 255 255 255 255 
0.156624 0.161355 0.0513451 0.00106809 0.00214452 0.999997 255 255 255 255 
-0.0688717 0.289641 -0.0513273 -0.000776637 0.00810278 -0.999967 255 255 255 255 
0.210077 -0.270237 0.0502926 0.00305617 -0.0218627 0.999756 255 255 255 255 
-0.126371 0.353009 0.00675205 -0.00191587 0.999998 -0.00104348 255 255 255 255 
-0.0122873 0.234435 0.0514338 -0.00041074 0.00309672 0.999995 255 255 255 255 
0.325516 -0.199505 -0.0503744 0.0104612 -0.00646521 -0.999924 255 255 255 255 
-0.278868 -0.217921 -0.0506863 -0.00423309 -0.0060741 -0.999973 255 255 255 255 
0.0300295 0.0795584 0.0513343 -0.000764351 3.01054e-005 1 255 255 255 255 
0.00961256 -0.0121189 -0.0512174 -3.55163e-005 0.000209772 -1 255 255 255 255 
-0.0233801 0.100587 -0.0511898 -1.89652e-005 5.7518e-005 -1 255 255 255 255 
-0.0790639 -0.311476 0.0517497 -0.00205229 -0.0151326 0.999883 255 255 255 255 
0.177499 0.163186 0.0513433 0.00137943 0.00227626 0.999996 255 255 255 255 
-0.0070062 0.211439 -0.0513018 -0.000134063 0.00125101 -0.999999 255 255 255 255 
-0.13412 0.136188 0.0512833 -0.00205039 0.00137695 0.999997 255 255 255 255 
-0.0789672 -0.0914106 0.0513179 -0.000371545 -0.00175741 0.999998 255 255 255 255 
-0.140769 0.353144 0.0362103 -0.00355311 0.999939 0.0104437 255 255 255 255 
-0.287205 0.133168 -0.0511118 -0.0033605 0.00298164 -0.99999 255 255 255 255 
-0.154834 -0.285991 -0.051089 -0.00267258 -0.00510251 -0.999983 255 255 255 255 
0.224938 -0.0480714 -0.0514101 0.00247868 -0.000425391 -0.999997 255 255 255 255 
-0.00680209 -0.251037 -0.0514893 0.000404578 -0.00366464 -0.999993 255 255 255 255 
0.271111 0.133818 0.0514159 0.00362181 0.0016917 0.999992 255 255 255 255 
-0.337283 0.131821 0.0511198 -0.00435365 0.0013209 0.99999 255 255 255 255 
0.14082 0.0343273 0.0513421 0.000415781 9.17491e-005 1 255 255 255 255 
-0.242785 -0.121064 0.0514902 -0.00161184 -0.00337185 0.999993 255 255 255 255 
0.245122 -0.212784 0.0515905 0.00465474 -0.0513363 0.998671 255 255 255 255 
0.337925 0.00559763 -0.0509705 0.0105239 0.00053638 -0.999945 255 255 255 255 
0.301066 -0.146023 0.0525241 0.0180272 -0.0102533 0.999785 255 255 255 255 
0.0190637 0.00579726 0.0513053 -0.000816179 -0.000517166 1 255 255 255 255 
0.273887 -0.00128134 0.0514007 0.00264866 -0.000177218 0.999996 255 255 255 255 
0.352668 0.183622 0.0311077 0.999808 0.0162036 0.0109778 255 255 255 255 
0.324479 -0.0655621 0.0513762 0.0058876 -0.00131835 0.999982 255 255 255 255 
0.0674517 0.120265 0.0513458 -5.16329e-005 0.00101387 1 255 255 255 255 
0.283853 0.231974 -0.047934 0.0124779 0.120245 -0.992666 255 255 255 255 
0.30505 0.0808861 -0.0514779 0.00572337 0.0067079 -0.999961 255 255 255 255 
0.239839 -0.0952856 0.0515452 0.00211226 -0.00238805 0.999995 255 255 255 255 
-0.126396 -0.212495 -0.0513496 -0.00159529 -0.00252186 -0.999996 255 255 255 255 
-0.260575 -0.0368691 -0.0512674 -0.00369341 -0.000635776 -0.999993 255 255 255 255 
-0.0911016 0.330109 -0.0512991 -0.000171211 0.0208038 -0.999784 255 255 255 255 
0.0130515 -0.0457025 0.0513167 -0.000530963 -0.00104267 0.999999 255 255 255 255 
-0.344387 -0.0354543 -0.0509294 -0.0064164 -0.000930167 -0.999979 255 255 255 255 
0.306287 0.04435 -0.0512882 0.00671564 0.00224734 -0.999975 255 255 255 255 
-0.352538 0.192345 -0.038071 -0.994857 0.101191 -0.00455707 255 255 255 255 
0.0265038 -0.159076 0.0513059 -9.37331e-006 -0.00256797 0.999997 255 255 255 255 
0.196871 -0.351752 0.0458485 0.0189075 -0.99976 0.0110517 255 255 255 255 
-0.353432 0.0806441 -0.01008 -0.999973 0.00569374 -0.00461878 255 255 255 255 
-0.187288 -0.217551 0.0512974 -0.00458299 -0.00337911 0.999984 255 255 255 255 
-0.29636 -0.219722 -0.0506207 -0.00394399 -0.00654223 -0.999971 255 255 255 255 
0.219946 -0.206224 -0.0513574 0.0223173 -0.0185996 -0.999578 255 255 255 255 
0.353507 -0.19066 0.00294319 0.99331 -0.114784 0.0126508 255 255 255 255 
-0.204913 -0.213882 -0.0510833 -0.00398596 -0.00405002 -0.999984 255 255 255 255 
0.164133 0.0385997 0.0513445 0.000689603 0.000261097 1 255 255 255 255 
-0.135633 0.0277806 0.0513153 -0.00123205 0.000196998 0.999999 255 255 255 255 
0.119144 0.0751487 -0.0512335 -2.06817e-005 0.000107625 -1 255 255 255 255 
0.140932 0.0768656 0.0513344 0.000529288 0.000781025 1 255 255 255 255 
0.314248 0.110869 -0.0516138 0.0071013 0.0134539 -0.999884 255 255 255 255 
0.309582 0.0211156 0.0514471 0.00633466 3.67051e-005 0.99998 255 255 255 255 
-0.26687 0.00515841 -0.0513078 -0.005256 -9.16062e-005 -0.999986 255 255 255 255 
0.351817 0.00308888 -0.0432192 0.99978 -0.000250122 -0.0209635 255 255 255 255 
0.188578 -0.0881182 0.0513831 0.000635371 -0.0017721 0.999998 255 255 255 255 
0.047737 -0.112349 -0.0512371 0.000166292 3.29685e-005 -1 255 255 255 255 
-0.325067 0.172377 0.0511238 -0.00412993 0.00163656 0.99999 255 255 255 255 
0.140419 0.167029 -0.0513789 0.000717542 0.00267594 -0.999996 255 255 255 255 
0.347051 -0.0686969 -0.0507838 0.0243879 -0.000934807 -0.999702 255 255 255 255 
-0.314236 -0.1582 0.0519737 -0.00430514 -0.0154251 0.999872 255 255 255 255 
0.253123 -0.0916881 0.0515705 0.00273372 -0.00230765 0.999994 255 255 255 255 
-0.239586 -0.183055 -0.0510335 -0.00424074 -0.00433313 -0.999982 255 255 255 255 
0.173018 0.0362375 -0.0512796 0.000279513 0.000227893 -1 255 255 255 255 
0.113486 0.0223311 0.0513397 7.86414e-005 -0.000259135 1 255 255 255 255 
-0.223833 0.116547 0.0513169 -0.00231201 0.00150295 0.999996 255 255 255 255 
0.280885 0.0222382 -0.0513621 0.00581315 0.000956964 -0.999983 255 255 255 255 
0.111544 -0.0660539 -0.0512329 0.000125281 -9.18748e-005 -1 255 255 255 255 
-0.222663 -0.108595 -0.0512792 -0.00238185 -0.00149701 -0.999996 255 255 255 255 
0.353492 -0.0993101 0.0364671 0.999464 -0.0146481 0.029288 255 255 255 255 
-0.352338 0.0449512 -0.042977 -0.999962 0.00139727 -0.00859157 255 255 255 255 
0.176595 -0.0212944 0.0513572 0.000631733 -0.000655464 1 255 255 255 255 
-0.332089 0.0922485 -0.050977 -0.00528223 0.00178611 -0.999984 255 255 255 255 
-0.0642769 0.352356 -0.0309242 -0.000232547 0.999993 -0.00365208 255 255 255 255 
-0.251963 -0.161811 0.0515011 -0.00150176 -0.00668396 0.999977 255 255 255 255 
-0.0971011 -0.168998 -0.0513179 -0.000459446 -0.000605467 -1 255 255 255 255 
0.26459 0.214792 -0.0157641 0.0425429 0.998212 -0.0419958 255 255 255 255 
0.141977 0.182623 -0.0513962 0.00102486 0.0038712 -0.999992 255 255 255 255 
0.141239 0.237695 -0.0512587 0.00226052 0.00758252 -0.999969 255 255 255 255 
-0.0861859 0.352294 -0.031476 -0.00046627 0.999974 -0.00725516 255 255 255 255 
0.0212271 0.344797 0.0511223 7.84635e-005 0.00896457 0.99996 255 255 255 255 
-0.156522 0.227947 0.0513307 -0.00293819 0.00185712 0.999994 255 255 255 255 
-0.0237352 -0.128116 0.0513096 -0.000137125 -0.00224326 0.999997 255 255 255 255 
-0.23672 -0.268123 0.0505298 -0.0170995 -0.00531924 0.99984 255 255 255 255 
0.0260718 0.0580838 -0.0511961 -9.87975e-005 0.000217295 -1 255 255 255 255 
0.190248 -0.122477 0.0514394 0.000729844 -0.00284454 0.999996 255 255 255 255 
0.330022 0.0735146 0.0515886 0.0232113 0.000666487 0.99973 255 255 255 255 
-0.189306 0.329699 0.0512005 -0.00221384 0.00439551 0.999988 255 255 255 255 
-0.157525 -0.352868 0.019572 0.000104702 -0.999967 0.00806464 255 255 255 255 
0.0298508 -0.326925 0.0512534 -0.000562872 -0.00614998 0.999981 255 255 255 255 
0.256584 0.175038 -0.0522482 0.00637542 0.0451305 -0.998961 255 255 255 255 
0.289861 0.214522 -0.0260013 0.0390861 0.997943 -0.0508153 255 255 255 255 
0.185329 0.226062 0.0514079 0.00153116 0.0041248 0.99999 255 255 255 255 
-0.286252 -0.205213 0.0512071 -0.00207313 -0.0226903 0.99974 255 255 255 255 
0.183891 0.0285011 0.0513502 0.000902064 0.000165854 1 255 255 255 255 
0.178373 -0.052698 -0.0512966 0.000551435 -0.000282025 -1 255 255 255 255 
-0.124226 0.273191 -0.0514278 -2.62009e-006 0.00795094 -0.999968 255 255 255 255 
0.328424 -0.090227 -0.0511543 0.0192972 -0.00142351 -0.999813 255 255 255 255 
0.104308 0.35203 0.0031584 -0.000361375 0.999962 0.00868514 255 255 255 255 
0.0657727 -0.00124501 -0.0512162 -5.10996e-005 0.000128847 -1 255 255 255 255 
-0.209437 -0.192935 -0.0511401 -0.00393667 -0.00380191 -0.999985 255 255 255 255 
-0.225068 0.199922 0.0512553 -0.00381767 0.00261883 0.999989 255 255 255 255 
0.333134 0.0915801 -0.0513832 0.00753044 0.00846272 -0.999936 255 255 255 255 
0.0353509 0.292859 -0.0511415 0.000602987 0.00500218 -0.999987 255 255 255 255 
0.299095 0.193414 -0.0513507 0.0123357 0.0641116 -0.997866 255 255 255 255 
0.165189 0.351755 -0.0346485 -0.000656971 1 -1.57321e-005 255 255 255 255 
0.0544633 0.0942906 0.0513442 -0.000343618 0.000439054 1 255 255 255 255 
0.223372 0.206044 0.0512937 0.00196967 0.00317513 0.999993 255 255 255 255 
-0.0391916 0.18483 0.0513857 -0.0012737 0.00123777 0.999998 255 255 255 255 
-0.330639 0.212366 -0.0349726 -0.0503268 0.998369 -0.0269462 255 255 255 255 
-0.00361603 0.334476 0.0512137 -2.69591e-006 0.00793268 0.999969 255 255 255 255 
0.107374 -0.26158 -0.0509888 0.013056 -0.00175627 -0.999913 255 255 255 255 
-0.151505 0.238027 0.0513583 -0.00282654 0.00202906 0.999994 255 255 255 255 
0.266839 0.0315715 -0.0514046 0.00454917 0.00124046 -0.999989 255 255 255 255 
-0.188296 0.257889 -0.0509344 0.00242382 0.00812599 -0.999964 255 255 255 255 
-0.146004 -0.266662 -0.0511808 -0.00261495 -0.00485496 -0.999985 255 255 255 255 
-0.0400038 0.125581 -0.0512056 -2.34557e-005 2.73984e-005 -1 255 255 255 255 
0.131328 0.17949 0.0513588 0.000794633 0.00239906 0.999997 255 255 255 255 
0.0868957 -0.321312 0.0512302 -9.25783e-005 -0.00460382 0.999989 255 255 255 255 
-0.110031 -0.352509 0.0363062 -1.54526e-005 -0.999896 0.0144028 255 255 255 255 
0.324401 -0.0413715 -0.0511839 0.0163645 -0.000489776 -0.999866 255 255 255 255 
-0.129595 0.320708 0.0514461 -0.00153317 0.00927727 0.999956 255 255 255 255 
-0.0332994 -0.341939 0.0512424 -0.00112977 -0.019924 0.999801 255 255 255 255 
0.352553 0.17687 -0.0258067 0.999922 0.00745891 -0.010025 255 255 255 255 
0.0162326 -0.294697 0.0514014 -0.000742447 -0.00576075 0.999983 255 255 255 255 
-0.0331552 -0.266947 -0.0514797 -0.000252012 -0.00546918 -0.999985 255 255 255 255 
0.263489 0.144395 0.0513691 0.00298679 0.00189359 0.999994 255 255 255 255 
0.318658 -0.0372399 -0.0512416 0.0147854 -0.00041904 -0.999891 255 255 255 255 
0.0642258 -0.278785 -0.0517753 0.00774889 -0.0052738 -0.999956 255 255 255 255 
-0.168309 0.0661499 -0.0512799 -0.000703459 0.000394065 -1 255 255 255 255 
-0.214507 0.336702 0.00118424 -0.999791 0.0194907 0.0060987 255 255 255 255 
-0.0276185 -0.35203 0.0075739 -0.000147259 -1 -0.000214373 255 255 255 255 
-0.0261782 -0.239351 0.0514096 -0.000819982 -0.00384143 0.999992 255 255 255 255 
-0.222633 -0.193492 0.0512531 -0.00250023 -0.00536234 0.999983 255 255 255 255 
-0.0956676 0.142939 0.0512972 -0.00198581 0.000923781 0.999998 255 255 255 255 
-0.307226 -0.21118 -0.05066 -0.00366686 -0.00655257 -0.999972 255 255 255 255 
0.0122513 -0.216345 0.0513208 -0.000371298 -0.00303419 0.999995 255 255 255 255 
-0.0299704 0.336757 0.0512394 -0.000117235 0.010339 0.999947 255 255 255 255 
-0.125267 0.352442 -0.0332964 -0.00178798 0.999847 -0.0173772 255 255 255 255 
-0.27074 -0.192047 0.0513939 -0.00191882 -0.0144304 0.999894 255 255 255 255 
-0.02791 -0.0448309 0.0513137 -0.000610908 -0.000948592 0.999999 255 255 255 255 
-0.294973 0.212038 -0.0448 -0.0969443 0.994966 -0.0254027 255 255 255 255 
-0.100935 -0.247096 -0.0513578 -0.00147235 -0.00413083 -0.99999 255 255 255 255 
0.0262837 0.0769622 -0.051194 -8.48457e-005 0.000146583 -1 255 255 255 255 
-0.35218 -0.0131389 0.00326888 -0.999998 1.09922e-005 -0.00209033 255 255 255 255 
0.130015 0.176619 -0.0513627 0.000665985 0.00241965 -0.999997 255 255 255 255 
-0.0290472 -0.352022 -0.0077269 -0.000157115 -0.999998 -0.00178426 255 255 255 255 
0.135546 -0.0849531 -0.0512676 0.000381388 -0.000334401 -1 255 255 255 255 
0.14959 0.0418198 -0.0512503 7.01943e-005 0.000137932 -1 255 255 255 255 
0.051605 -0.276726 -0.0517402 0.00539114 -0.00558111 -0.99997 255 255 255 255 
0.31695 -0.0601353 -0.0513253 0.0170046 -0.000819945 -0.999855 255 255 255 255 
0.229899 -0.201728 -0.0512329 0.0237381 -0.01818 -0.999553 255 255 255 255 
-0.0632016 -0.0650636 -0.0512274 -3.84549e-005 0.000181926 -1 255 255 255 255 
0.0714485 -0.0963813 -0.0512321 0.000170548 -5.80563e-006 -1 255 255 255 255 
0.110962 -0.206459 0.0513204 0.000208881 -0.00336099 0.999994 255 255 255 255 
-0.269309 -0.200307 -0.0508264 -0.00423032 -0.00553504 -0.999976 255 255 255 255 
-0.137409 0.117111 0.0512875 -0.001903 0.00133399 0.999997 255 255 255 255 
0.267244 -0.0514344 -0.0515065 0.00715617 -0.000655955 -0.999974 255 255 255 255 
-0.154292 0.173198 0.0512857 -0.00249985 0.00160105 0.999996 255 255 255 255 
-0.0204423 0.223976 0.0514303 -0.000612196 0.00261746 0.999996 255 255 255 255 
-0.188621 -0.0490168 0.0513292 -0.00089027 -0.0011929 0.999999 255 255 255 255 
-0.329514 -0.180399 0.0518905 -0.00333327 -0.0272119 0.999624 255 255 255 255 
-0.301668 -0.199555 -0.0507474 -0.00366123 -0.00612027 -0.999975 255 255 255 255 
-0.237436 -0.144139 0.0514585 -0.00126514 -0.00435706 0.99999 255 255 255 255 
-0.120372 -0.331819 -0.0509271 -0.00162954 -0.0069891 -0.999974 255 255 255 255 
-0.275961 0.195839 0.0512003 -0.0039706 0.00225982 0.99999 255 255 255 255 
0.0549032 -0.209156 -0.0513656 0.00141038 -0.00108086 -0.999998 255 255 255 255 
-0.151904 0.0325282 -0.0512529 -0.000437164 0.000172587 -1 255 255 255 255 
0.0811124 -0.260658 -0.0515173 0.00853775 -0.00285397 -0.99996 255 255 255 255 
-0.159922 0.0771233 -0.0512681 -0.000533483 0.000414332 -1 255 255 255 255 
-0.0882642 -0.12507 0.0513115 -0.000225998 -0.00230271 0.999997 255 255 255 255 
-0.246383 0.194016 -0.0511533 -0.00197263 0.00652111 -0.999977 255 255 255 255 
0.311158 -0.212915 0.0412286 0.056013 -0.998102 0.0255744 255 255 255 255 
-0.223406 -0.0296656 0.051359 -0.00141418 -0.000854044 0.999999 255 255 255 255 
-0.228761 -0.0237456 0.0513628 -0.00153874 -0.000748313 0.999999 255 255 255 255 
0.277167 0.154997 -0.0321633 0.34583 0.934122 -0.088421 255 255 255 255 
0.146109 -0.321149 0.0512346 0.00151902 -0.00535273 0.999985 255 255 255 255 
0.0786925 -0.0654984 -0.0512246 8.68074e-005 1.42512e-005 -1 255 255 255 255 
-0.196098 -0.305685 0.0514112 -0.0225401 -0.00385787 0.999739 255 255 255 255 
0.0019343 -0.0435211 -0.0512214 3.55677e-006 0.000157052 -1 255 255 255 255 
-0.0117382 -0.351943 0.00529398 -0.000157942 -1 -0.000457715 255 255 255 255 
0.139169 0.351834 -0.0184707 -0.000561789 0.999999 0.00164962 255 255 255 255 
-0.199511 -0.137792 0.0513473 -0.000739873 -0.00299316 0.999995 255 255 255 255 
0.352939 -0.0595819 0.00346558 0.999942 -0.00417714 0.00996929 255 255 255 255 
0.0712443 0.221 -0.0513208 0.000249992 0.00225226 -0.999997 255 255 255 255 
-0.261035 -0.198623 0.0512552 -0.00222069 -0.0122435 0.999923 255 255 255 255 
-0.161234 -0.187496 -0.051321 -0.0022498 -0.00234397 -0.999995 255 255 255 255 
-0.279217 -0.0435523 -0.0512024 -0.00410507 -0.000914698 -0.999991 255 255 255 255 
0.112965 0.0395844 0.0513393 0.000130311 2.22895e-005 1 255 255 255 255 
0.0833874 0.340858 -0.050828 0.00120722 0.00748913 -0.999971 255 255 255 255 
0.00498408 -0.351858 -0.0249884 -0.000172106 -0.999996 -0.00299668 255 255 255 255 
0.272622 0.172362 -0.052199 0.00758672 0.0458269 -0.998921 255 255 255 255 
0.157547 -0.117549 -0.0513829 0.00154581 -0.00128833 -0.999998 255 255 255 255 
0.35251 0.121603 0.00533798 0.999977 0.00295169 -0.00618012 255 255 255 255 
0.018691 -0.321501 -0.0514835 0.00256322 -0.0113125 -0.999933 255 255 255 255 
-0.32805 -0.0492881 -0.0510142 -0.00472201 -0.00118234 -0.999988 255 255 255 255 
0.228069 -0.222339 0.0342029 0.216268 -0.976152 0.0188608 255 255 255 255 
0.352549 0.202126 -0.0159298 0.999931 0.0111592 -0.00372647 255 255 255 255 
0.352014 0.00506745 -0.0332912 0.999818 -0.00023101 -0.0190735 255 255 255 255 
0.162447 -0.331167 0.0511895 0.00277902 -0.00571218 0.99998 255 255 255 255 
-0.157484 -0.343925 -0.0508426 -0.00214774 -0.00558787 -0.999982 255 255 255 255 
0.0893763 0.0338364 -0.051214 -8.1514e-005 8.15395e-005 -1 255 255 255 255 
0.159737 -0.00139135 -0.0512543 0.000139173 7.47381e-006 -1 255 255 255 255 
-0.158336 -0.211074 -0.0512891 -0.00257064 -0.00307141 -0.999992 255 255 255 255 
0.211095 0.229016 -0.0505465 0.00591102 0.0452197 -0.99896 255 255 255 255 
-0.32833 -0.132733 0.0518305 -0.00743756 -0.00872461 0.999934 255 255 255 255 
-0.132665 -0.348398 -0.0508221 -0.00171962 -0.0065421 -0.999977 255 255 255 255 
0.0694824 -0.0217438 0.051322 -0.000418791 -0.000947525 0.999999 255 255 255 255 
0.150602 0.189774 0.0513709 0.00108398 0.00272859 0.999996 255 255 255 255 
0.220885 -0.143011 -0.0515745 0.00887592 -0.00610529 -0.999942 255 255 255 255 
0.0447035 0.316421 0.0513968 0.000153246 0.0103727 0.999946 255 255 255 255 
-0.353304 0.0671677 0.0191032 -0.999877 0.00360712 0.0152628 255 255 255 255 
0.336482 -0.14246 0.0518681 0.0287532 -0.00820152 0.999553 255 255 255 255 
0.354601 -0.158774 0.0441501 0.997098 -0.0694716 0.0311243 255 255 255 255 
-0.237344 0.122627 -0.0512499 -0.00251042 0.00235186 -0.999994 255 255 255 255 
-0.0968665 0.107268 0.0512892 -0.00179437 0.000877698 0.999998 255 255 255 255 
0.116699 0.124937 0.0513328 0.000447984 0.00141457 0.999999 255 255 255 255 
0.0369764 -0.271498 -0.0516683 0.0033572 -0.00534292 -0.99998 255 255 255 255 
0.070981 0.145412 0.0513486 8.12349e-005 0.00149118 0.999999 255 255 255 255 
0.211013 -0.276896 0.0421323 0.983231 -0.182285 -0.00531949 255 255 255 255 
0.170006 -0.14204 0.0513942 0.000461093 -0.00310834 0.999995 255 255 255 255 
0.352826 -0.0527502 -0.0113089 0.999981 -0.00325653 0.00526019 255 255 255 255 
0.0908276 -0.0886167 -0.0512339 0.000184355 -6.66501e-005 -1 255 255 255 255 
0.247952 0.116992 0.0514145 0.00280642 0.0016075 0.999995 255 255 255 255 
-0.27931 0.155166 -0.0511074 -0.00280498 0.00373793 -0.999989 255 255 255 255 
-0.217004 -0.262627 -0.0142293 -0.989673 -0.14138 -0.0236591 255 255 255 255 
0.131313 0.159039 0.0513436 0.000726265 0.00200715 0.999998 255 255 255 255 
-0.0431597 -0.226607 -0.0514068 -0.000231777 -0.00218371 -0.999998 255 255 255 255 
0.168773 0.201652 0.0513788 0.00135454 0.00313577 0.999994 255 255 255 255 
-0.158587 0.021308 -0.0512589 -0.000546735 0.000157885 -1 255 255 255 255 
-0.107346 -0.0119715 -0.0512196 -0.000125405 0.00015993 -1 255 255 255 255 
0.26151 -0.125785 -0.051408 0.00915883 -0.00417887 -0.999949 255 255 255 255 
0.352298 0.103755 -0.00953802 0.999945 0.00139382 -0.0104015 255 255 255 255 
0.115285 -0.108728 -0.0512682 0.000460128 -0.000338116 -1 255 255 255 255 
-0.25194 -0.176106 -0.0510103 -0.0041356 -0.0044401 -0.999982 255 255 255 255 
0.0752108 -0.213846 -0.0513472 0.00244197 -0.0013216 -0.999996 255 255 255 255 
0.35573 -0.164514 -0.000293799 0.996272 -0.0850655 0.0143781 255 255 255 255 
-0.26418 0.214381 -0.00409294 -0.203238 0.979087 -0.00914845 255 255 255 255 
-0.0137468 0.280444 -0.0512423 -6.22247e-005 0.00453033 -0.99999 255 255 255 255 
-0.0112286 0.221856 -0.0513131 -0.000180072 0.00167669 -0.999999 255 255 255 255 
0.352405 0.0714095 0.0251718 0.999967 0.000483929 -0.0080816 255 255 255 255 
0.217501 0.157848 0.0513303 0.00191332 0.00230156 0.999996 255 255 255 255 
0.292234 -0.0669852 0.0514773 0.00417504 -0.00140095 0.99999 255 255 255 255 
0.187049 -0.152122 -0.051629 0.00615863 -0.00509494 -0.999968 255 255 255 255 
0.115521 0.301529 -0.0511028 0.00182533 0.00840832 -0.999963 255 255 255 255 
0.0211313 -0.154675 -0.051271 0.000214908 -0.000114976 -1 255 255 255 255 
-0.121438 -0.352369 -0.0402588 -0.000135655 -0.999714 -0.0239164 255 255 255 255 
0.12099 0.326856 -0.0509372 0.00171767 0.0102145 -0.999946 255 255 255 255 
-0.286319 0.0883248 -0.0511802 -0.00468986 0.00168615 -0.999988 255 255 255 255 
0.271795 0.2367 0.0511407 0.00225771 0.00314053 0.999993 255 255 255 255 
0.241479 0.109569 -0.0516403 0.00210258 0.00875127 -0.99996 255 255 255 255 
-0.173307 0.143704 -0.0512978 -0.001105 0.00162429 -0.999998 255 255 255 255 
0.0841433 0.256484 0.0515957 0.000389562 0.00639971 0.999979 255 255 255 255 
-0.0107982 0.351941 0.0384329 -4.73847e-005 0.999614 0.0277649 255 255 255 255 
-0.28271 -0.146379 0.0517735 -0.00312302 -0.00837933 0.99996 255 255 255 255 
-0.0579389 -0.342058 0.0512885 -0.00148786 -0.0244882 0.999699 255 255 255 255 
-0.0285688 0.00233355 0.0513039 -0.000934832 -0.00033198 1 255 255 255 255 
-0.0321058 0.192885 0.0513984 -0.00108907 0.00150631 0.999998 255 255 255 255 
-0.338161 0.181212 -0.0508899 -0.00301469 0.00408596 -0.999987 255 255 255 255 
0.285909 0.049192 0.0515718 0.00613492 0.000484409 0.999981 255 255 255 255 
-0.0464764 -0.206665 0.0513325 -0.000527603 -0.00307802 0.999995 255 255 255 255 
0.172684 0.325915 -0.0508123 0.00243794 0.0177909 -0.999839 255 255 255 255 
0.131599 -0.184806 -0.0513582 0.00279273 -0.00308225 -0.999991 255 255 255 255 
0.0122667 0.114727 0.051354 -0.000894975 0.000388616 1 255 255 255 255 
0.0418026 -0.35204 -0.0146093 0.000137189 -0.999992 -0.00398797 255 255 255 255 
-0.114499 0.030318 -0.0512188 -0.000113169 0.000152061 -1 255 255 255 255 
0.115912 0.260402 0.0516913 0.000645073 0.00790124 0.999969 255 255 255 255 
0.246238 0.0632594 -0.0514699 0.002704 0.00281794 -0.999992 255 255 255 255 
-0.0744194 -0.29895 0.0517879 -0.00189577 -0.0125325 0.99992 255 255 255 255 
0.19817 0.224366 0.05137 0.00167827 0.00393132 0.999991 255 255 255 255 
-0.17977 0.0740414 0.0513186 -0.00165639 0.000950592 0.999998 255 255 255 255 
-0.0865823 0.0591264 -0.0512023 2.82139e-007 0.00017444 -1 255 255 255 255 
0.1189 -0.185098 0.0513229 0.00024566 -0.00313114 0.999995 255 255 255 255 
0.10526 -0.0470252 0.0513305 -0.000112778 -0.00125009 0.999999 255 255 255 255 
0.257645 -0.219661 0.0511705 0.00648535 -0.0767774 0.997027 255 255 255 255 
0.238353 -0.0468434 0.0513931 0.00149269 -0.000929252 0.999998 255 255 255 255 
0.345581 -0.0583148 0.0512465 0.00601078 -0.00114108 0.999981 255 255 255 255 
0.352544 0.208253 -0.00141435 0.9999 0.0140659 0.00178752 255 255 255 255 
-0.203183 -0.130332 0.0513582 -0.000747196 -0.00289138 0.999996 255 255 255 255 
0.199966 -0.171827 0.0516354 0.00123204 -0.0083626 0.999964 255 255 255 255 
-0.0557957 -0.173773 -0.0513036 -0.000126196 -0.000392963 -1 255 255 255 255 
-0.239001 0.212189 0.051208 -0.00422284 0.00284574 0.999987 255 255 255 255 
0.0187791 -0.177474 -0.0513028 0.000310091 -0.000368134 -1 255 255 255 255 
0.241658 -0.209074 -0.0508043 0.0273217 -0.0199268 -0.999428 255 255 255 255 
0.168064 -0.125614 0.0513758 0.000402867 -0.00254462 0.999997 255 255 255 255 
0.285974 -0.0541754 -0.0515047 0.010339 -0.000733138 -0.999946 255 255 255 255 
-0.187887 -0.261556 -0.0510343 -0.00345101 -0.00421633 -0.999985 255 255 255 255 
0.185249 0.0985581 0.0513485 0.00120076 0.00127644 0.999998 255 255 255 255 
0.306048 0.0568694 0.0516552 0.011107 0.000518704 0.999938 255 255 255 255 
0.352567 -0.046695 -0.0470722 0.999995 -0.00262483 -0.00153944 255 255 255 255 
-0.0269174 0.263018 -0.0513044 -0.000352849 0.00398312 -0.999992 255 255 255 255 
-0.132573 0.216565 0.0513511 -0.0025365 0.00158722 0.999996 255 255 255 255 
-0.152399 0.209398 -0.0513119 -0.000730556 0.00464904 -0.999989 255 255 255 255 
0.178178 0.194119 -0.0515178 0.00267051 0.0141395 -0.999896 255 255 255 255 
0.355401 -0.11928 -0.00104815 0.999329 -0.0312679 0.0190912 255 255 255 255 
0.0706381 -0.323463 0.0512274 -0.000242871 -0.00469153 0.999989 255 255 255 255 
0.0542484 0.335629 0.0512513 0.000181822 0.0148879 0.999889 255 255 255 255 
0.0582361 -0.3267 -0.0517865 0.00862138 -0.012005 -0.999891 255 255 255 255 
-0.085263 0.321557 0.0515612 -0.000778754 0.0148524 0.999889 255 255 255 255 
0.205944 0.266131 -0.049899 0.0048696 0.0321136 -0.999472 255 255 255 255 
0.261745 0.0509879 0.0514837 0.00353708 0.00058861 0.999994 255 255 255 255 
-0.15744 -0.000449713 -0.051253 -0.000517071 0.000133395 -1 255 255 255 255 
-0.0478637 -0.186035 -0.0513204 -0.000104288 -0.00059981 -1 255 255 255 255 
-0.00342313 0.107543 -0.0511953 -3.28901e-005 3.73313e-005 -1 255 255 255 255 
0.158165 0.0324251 -0.0512577 0.000125298 0.000131184 -1 255 255 255 255 
0.285784 -0.0330616 -0.0514435 0.00907131 -0.000361376 -0.999959 255 255 255 255 
-0.055475 -0.283664 -0.051398 -0.000769144 -0.00715462 -0.999974 255 255 255 255 
0.276349 -0.0372747 0.0514033 0.00255133 -0.000771267 0.999996 255 255 255 255 
0.0312951 -0.127272 -0.0512464 0.000165366 2.19973e-005 -1 255 255 255 255 
-0.164372 0.18171 0.0512875 -0.00268971 0.00172786 0.999995 255 255 255 255 
-0.237788 -0.0917134 0.0514473 -0.00165257 -0.00222539 0.999996 255 255 255 255 
-0.0664944 -0.0986547 0.0513173 -0.000315964 -0.00186277 0.999998 255 255 255 255 
-0.150943 -0.0861035 0.0513145 -0.000528948 -0.00176137 0.999998 255 255 255 255 
0.356399 -0.137801 -0.0193282 0.99854 -0.0530194 0.0103311 255 255 255 255 
0.155809 0.289004 0.0517606 0.000856316 0.0132614 0.999912 255 255 255 255 
0.0722639 -0.204429 0.0513098 1.7793e-005 -0.00302319 0.999995 255 255 255 255 
0.201055 0.105507 0.0513587 0.0015177 0.00144104 0.999998 255 255 255 255 
0.0516442 0.264522 0.0515009 0.000178092 0.00566393 0.999984 255 255 255 255 
-0.269047 0.0177854 -0.0513076 -0.00557041 9.00567e-005 -0.999985 255 255 255 255 
