ply
format ascii 1.0
comment VCGLIB generated
element vertex 684
property float x
property float y
property float z
property float nx
property float ny
property float nz
property uchar red
property uchar green
property uchar blue
property uchar alpha
element face 0
property list uchar int vertex_indices
end_header
0.0877948 0.053811 -0.191847 0.968537 -0.208059 -0.0863237 0 0 0 255 
0.034918 -0.221631 0.0263634 -0.383715 -0.550801 -0.722957 0 0 0 255 
-0.0279295 0.0845667 0.258018 -0.815643 -0.515533 -0.184251 0 0 0 255 
0.0357129 -0.189615 0.069046 -0.383187 0.239109 0.861364 0 0 0 255 
0.0717967 -0.223881 0.0455555 0.799303 0.0675736 -0.531146 0 0 0 255 
0.0575658 0.0717088 0.178167 0.578499 -0.14289 0.781995 0 0 0 255 
-0.0417238 -0.19471 0.0654769 -0.00136157 0.385764 0.908095 0 0 0 255 
-0.0814427 0.0543878 -0.223113 -0.961059 -0.244212 -0.04265 0 0 0 255 
0.0329462 -0.00752337 -0.318264 -0.646984 -0.533562 0.479468 0 0 0 255 
-0.0895426 0.162139 -0.135355 -0.897655 0.439397 -0.00293808 0 0 0 255 
-0.0366617 0.181154 0.216289 -0.933315 0.314794 0.154211 0 0 0 255 
0.089786 0.0934962 -0.206066 0.995194 0.02614 0.0155635 0 0 0 255 
-0.0389958 0.151648 0.244135 -0.98561 0.0602385 0.138233 0 0 0 255 
0.0311601 0.0632543 0.195246 0.664322 -0.427179 0.598104 0 0 0 255 
-0.0756614 -0.0607403 0.0547358 -0.95833 -0.279069 -0.00582645 0 0 0 255 
-0.0645259 0.211381 -0.292263 -0.671616 0.727553 -0.114587 0 0 0 255 
0.0907551 0.0779518 -0.20891 0.994639 -0.0636856 0.0394017 0 0 0 255 
-0.0931654 0.149501 -0.280761 -0.968915 0.240917 -0.0319237 0 0 0 255 
-0.0611466 -0.0467655 -0.330019 -0.598103 -0.537714 0.554156 0 0 0 255 
-0.0394458 0.14519 0.320127 -0.997412 -0.0440993 -0.0525809 0 0 0 255 
-0.0221648 0.0676908 0.293882 -0.541718 -0.818053 -0.06455 0 0 0 255 
-0.110173 0.165709 0.304794 -0.0418477 -0.411699 0.794148 0 0 0 255 
0.0492674 0.127671 0.343448 0.901152 0.0679643 0.422685 0 0 0 255 
0.0662805 -0.235753 0.0430349 0.407306 -0.540325 -0.613444 0 0 0 255 
-0.0135339 0.175187 0.356474 -0.0855732 0.497929 0.84115 0 0 0 255 
0.0107246 0.169092 -0.39881 0.22309 0.128071 -0.962689 0 0 0 255 
0.0706597 -0.146631 -0.365978 0.691654 -0.0131806 0.711551 0 0 0 255 
0.0794501 0.124723 -0.36068 0.883782 0.0263493 -0.454763 0 0 0 255 
-0.054774 -0.0370705 -0.317017 -0.0718459 -0.587711 0.734254 0 0 0 255 
-0.0813185 0.189953 -0.268007 -0.914841 0.367279 -0.128798 0 0 0 255 
-0.042591 0.147591 0.221299 -0.975869 0.0437307 0.198666 0 0 0 255 
-0.0531701 -0.0126498 -0.17639 -0.540783 -0.802062 -0.252098 0 0 0 255 
-0.019115 -0.0285742 0.139917 -0.800334 -0.432432 0.411514 0 0 0 255 
0.0473341 0.209489 0.00372228 0.778312 0.621732 -0.00849602 0 0 0 255 
-0.00529951 -0.0227198 -0.235288 -0.200213 -0.837826 -0.389061 0 0 0 255 
-0.0719367 0.150904 0.094075 -0.935651 0.334358 0.0763857 0 0 0 255 
0.0866222 0.00532284 0.0862917 0.986064 0.0273575 0.161296 0 0 0 255 
-0.0456957 0.209418 -0.0997278 -0.516826 0.849616 0.0477378 0 0 0 255 
-0.0637312 -0.239278 -0.341284 -0.686401 -0.413051 0.563296 0 0 0 255 
-0.0992343 0.0487443 -0.148796 -0.950112 -0.247174 -0.145096 0 0 0 255 
0.0544057 -0.2053 0.0734435 0.405066 0.541066 0.702423 0 0 0 255 
0.093587 0.119054 -0.169274 0.972208 0.10718 -0.191981 0 0 0 255 
0.0365078 -0.0296989 0.00204237 0.701103 -0.674065 0.0354109 0 0 0 255 
-0.0624876 -0.194 0.0554138 -0.779239 0.336187 0.50152 0 0 0 255 
-0.0494943 0.166736 0.278768 -0.111171 -0.126059 -0.972702 0 0 0 255 
-0.0828365 -0.00583264 0.0402815 -0.933366 0.0685558 -0.343505 0 0 0 255 
-0.00100482 0.120365 -0.402369 0.801362 0.0334526 -0.577335 0 0 0 255 
0.0613651 0.0996722 0.172743 0.790895 0.147022 0.572859 0 0 0 255 
-0.0098825 0.229297 -0.168752 -0.179977 0.973693 0.0975584 0 0 0 255 
-0.0922572 0.0436917 -0.033908 -0.905077 -0.33093 0.242442 0 0 0 255 
-0.0643634 -0.0091852 -0.048692 -0.729277 -0.646388 0.220286 0 0 0 255 
0.0745917 0.078038 -0.36021 0.889696 -0.0784052 -0.444954 0 0 0 255 
0.0765642 0.0899846 -0.359151 0.893548 -0.117004 -0.429329 0 0 0 255 
0.0576182 -0.240981 0.0596613 0.109034 -0.919493 -0.205344 0 0 0 255 
0.0745316 -0.0403532 -0.339582 0.875821 -0.322873 0.252105 0 0 0 255 
-0.00318421 0.240415 0.0657825 -0.0451601 0.987535 0.0513006 0 0 0 255 
0.0800784 0.125931 0.092856 0.965349 0.243112 0.0770038 0 0 0 255 
-0.0501206 0.204381 -0.0698964 -0.577186 0.807466 0.056327 0 0 0 255 
-0.027331 -0.113744 -0.370161 0.792662 -0.184276 0.574243 0 0 0 255 
-0.0626119 0.197458 -0.106102 -0.663188 0.744203 0.0453756 0 0 0 255 
0.0625591 -0.166286 -0.407324 0.229907 0.0801679 -0.889769 0 0 0 255 
-0.0405004 0.209076 -0.0265242 -0.653711 0.750175 -0.0565428 0 0 0 255 
-0.033822 -0.0347926 -0.00973727 -0.640161 -0.759775 0.0639081 0 0 0 255 
0.0214456 -0.140197 0.0382551 -0.807536 -0.07384 -0.578243 0 0 0 255 
-0.0618429 0.177604 0.0796471 -0.899329 0.429779 0.0591269 0 0 0 255 
-0.059812 0.18771 0.011251 -0.881846 0.461154 -0.0333417 0 0 0 255 
-0.0342841 -0.0912026 -0.353996 0.494534 -0.447112 0.739971 0 0 0 255 
0.0193655 -0.0466159 0.0212103 0.594179 -0.763509 -0.0724886 0 0 0 255 
-0.061722 0.199297 -0.124313 -0.663498 0.743977 0.0573927 0 0 0 255 
-0.0389166 -0.0344991 -0.321577 0.536736 -0.372276 0.727447 0 0 0 255 
-0.0692752 0.0222723 0.132881 -0.613711 -0.568458 0.523351 0 0 0 255 
-0.00392235 0.23901 0.010744 -0.0974468 0.973578 -0.112634 0 0 0 255 
0.0507717 0.0868897 0.395326 0.808358 0.461982 0.316146 0 0 0 255 
-0.068971 0.167099 0.0100632 -0.902195 0.404118 0.115301 0 0 0 255 
0.0513942 0.0882292 0.382693 0.904569 0.373536 0.142309 0 0 0 255 
0.0455992 0.212418 0.0179081 0.783556 0.608838 -0.000573542 0 0 0 255 
0.0624549 -0.209864 -0.405508 0.0760578 -0.552191 -0.761284 0 0 0 255 
-0.0210371 -0.061364 -0.355757 0.952882 -0.129277 0.259377 0 0 0 255 
0.00932207 0.0215488 -0.333105 -0.41 -0.818442 -0.273755 0 0 0 255 
0.019047 -0.0532954 0.103494 0.830919 -0.542829 0.0672829 0 0 0 255 
-0.029326 0.190987 -0.392366 -0.376821 0.334138 -0.86094 0 0 0 255 
0.0377024 -0.230885 -0.349315 -0.800186 -0.199358 0.283211 0 0 0 255 
-0.0625375 -0.00271761 -0.0282172 -0.773533 -0.581791 0.247649 0 0 0 255 
0.0332397 0.228528 0.0612846 0.719702 0.684375 0.080589 0 0 0 255 
-0.0513657 -0.22798 -0.397463 -0.288839 -0.340778 -0.809556 0 0 0 255 
0.093119 0.134927 -0.0302008 0.928263 0.316303 0.160936 0 0 0 255 
0.0798114 0.0509776 -0.349626 0.874365 0.023387 -0.477082 0 0 0 255 
0.0293223 0.229111 -0.277475 0.32561 0.941611 -0.0613469 0 0 0 255 
-0.0280429 0.110058 0.33945 -0.9119 -0.173829 0.363418 0 0 0 255 
0.0276076 0.179274 0.349709 0.233255 0.611895 0.745658 0 0 0 255 
-0.033341 0.10051 0.260132 -0.942992 -0.197227 -0.222097 0 0 0 255 
0.10583 0.100512 -0.0845607 0.988546 0.0759718 -0.00364389 0 0 0 255 
0.00304595 -0.0461057 -0.194465 0.247885 -0.791167 -0.479485 0 0 0 255 
0.049254 0.0858728 0.271563 0.854928 -0.326471 -0.310902 0 0 0 255 
0.0430472 0.184027 0.18332 0.909736 0.391895 0.11737 0 0 0 255 
0.0483659 -0.0120853 -0.189458 0.571064 -0.772734 -0.274606 0 0 0 255 
-0.0642852 -0.0154088 -0.122605 -0.738836 -0.66722 -0.0855417 0 0 0 255 
-0.0516671 -0.0497107 0.0956251 -0.0540954 -0.364494 0.903443 0 0 0 255 
0.0859345 0.139936 -0.00472309 0.91193 0.347804 0.20016 0 0 0 255 
0.0905129 0.0690539 0.028546 0.980524 -0.12509 0.113131 0 0 0 255 
0.0927914 0.0864035 -0.17637 0.980964 -0.0436369 -0.170586 0 0 0 255 
0.0731556 0.167615 0.261425 0.0682236 -0.645416 -0.620357 0 0 0 255 
-0.0803669 -0.00868367 -0.32063 -0.930416 -0.303135 0.0631961 0 0 0 255 
-0.07978 0.0686136 0.148155 -0.898617 -0.0556015 0.40345 0 0 0 255 
0.0217344 0.0377074 0.187058 0.458696 -0.460896 0.758516 0 0 0 255 
-0.0670313 -0.0478798 -0.345749 -0.911424 -0.299944 0.226122 0 0 0 255 
-0.0831697 0.12871 -0.353371 -0.949799 0.0485794 -0.296917 0 0 0 255 
0.0277255 -0.0407362 -0.145391 0.657237 -0.723756 -0.199873 0 0 0 255 
0.0392855 0.0872086 0.201858 0.84811 -0.401922 0.305761 0 0 0 255 
-0.0645481 0.111083 -0.381342 -0.689768 -0.0487873 -0.721057 0 0 0 255 
0.0873839 0.153743 -0.321293 0.947553 0.237996 -0.20103 0 0 0 255 
0.0745699 0.0200912 -0.226565 0.776969 -0.588454 -0.0933554 0 0 0 255 
0.0199595 -0.0549178 0.0682641 -0.424607 -0.712437 -0.243335 0 0 0 255 
-0.0193259 -0.191091 -0.388722 0.976759 0.0299247 -0.117135 0 0 0 255 
0.0967042 0.122608 -0.0205529 0.946464 0.252805 0.190984 0 0 0 255 
-0.0212927 0.22792 -0.182428 -0.252489 0.954289 0.125087 0 0 0 255 
-0.065178 0.194393 -0.0895318 -0.683248 0.72263 0.0466619 0 0 0 255 
-0.0589175 -0.0599211 -0.337385 -0.634526 -0.427276 0.620697 0 0 0 255 
-0.0965201 0.0731031 -0.24504 -0.890336 -0.185472 0.39311 0 0 0 255 
-0.0247835 0.207059 0.218538 -0.747465 0.626292 0.120343 0 0 0 255 
0.054777 -0.0422308 0.107511 0.0798205 -0.287701 0.931953 0 0 0 255 
-0.0105429 0.203666 0.324269 -0.30631 0.840951 0.414664 0 0 0 255 
0.0449828 -0.216352 -0.388001 -0.709561 -0.315696 -0.570982 0 0 0 255 
-0.0808479 0.00317456 -0.105868 -0.806166 -0.58633 -0.0211314 0 0 0 255 
0.0721675 -0.0954458 -0.395009 0.818205 0.0304049 -0.56064 0 0 0 255 
-0.0303623 0.228623 -0.303626 -0.374497 0.925633 -0.0373337 0 0 0 255 
-0.0407769 -0.215909 0.078537 0.102011 0.524338 0.781711 0 0 0 255 
0.0927504 0.0217617 -0.325277 0.75671 0.574428 -0.280382 0 0 0 255 
0.00348527 0.0728184 -0.412363 -0.0275679 -0.145181 -0.980179 0 0 0 255 
0.0288208 -0.0364111 0.120363 0.78181 -0.581733 0.187902 0 0 0 255 
0.0682398 -0.0867757 -0.398585 0.75236 0.0419859 -0.637825 0 0 0 255 
0.0914566 0.086407 -0.331607 0.928068 -0.0300561 -0.369029 0 0 0 255 
0.075749 0.0027217 -0.368604 0.738063 -0.490709 -0.425002 0 0 0 255 
0.0857687 0.089217 0.0875479 0.98451 0.172308 0.0270822 0 0 0 255 
0.052849 -0.0529708 -0.410095 0.0719552 -0.00715224 -0.90584 0 0 0 255 
0.0870904 -0.219456 -0.37301 0.954107 0.159749 -0.197574 0 0 0 255 
0.0372428 0.197759 0.153883 0.890739 0.446141 0.0165248 0 0 0 255 
-0.0597252 0.18242 0.0894822 -0.884246 0.452253 0.10904 0 0 0 255 
-0.0545149 -0.053586 -0.33123 -0.399797 -0.44694 0.738865 0 0 0 255 
0.0675381 0.0197957 0.0126759 0.862942 -0.427789 -0.105798 0 0 0 255 
-0.0166182 0.225267 -0.142909 -0.291723 0.950059 0.0818 0 0 0 255 
0.0843971 0.134965 -0.340929 0.941148 0.102583 -0.315929 0 0 0 255 
-0.0913097 0.158394 -0.268269 -0.964547 0.25308 -0.0571947 0 0 0 255 
0.0389698 -0.0674132 -0.347322 -0.771529 -0.313034 0.485761 0 0 0 255 
-0.0958708 0.115979 -0.303641 -0.969663 -0.000438957 -0.236196 0 0 0 255 
-0.119761 0.17823 0.300655 -0.711019 -0.0463357 -0.560427 0 0 0 255 
0.0142142 0.233652 -0.285896 0.270313 0.961091 -0.0396938 0 0 0 255 
-0.0511839 0.179252 -0.388364 -0.422587 0.284471 -0.856473 0 0 0 255 
0.0984879 0.104358 -0.0152259 0.963265 0.131708 0.198809 0 0 0 255 
-0.073421 0.164041 -0.0053973 -0.862058 0.45346 0.190314 0 0 0 255 
0.0657264 0.213588 -0.205544 0.611874 0.708823 0.316008 0 0 0 255 
0.0189435 0.230632 -0.197707 0.198196 0.970648 0.0943049 0 0 0 255 
0.0471464 0.116414 0.353309 0.91146 0.30989 0.264647 0 0 0 255 
0.02505 0.203826 0.234189 0.789587 0.598584 0.090947 0 0 0 255 
-0.0616673 0.157786 0.285551 0.0148934 -0.77722 -0.481016 0 0 0 255 
-0.0359652 0.210805 0.114877 -0.8262 0.522677 0.189156 0 0 0 255 
-0.0657663 -0.216078 -0.370031 -0.955117 0.249845 0.149324 0 0 0 255 
0.000167069 0.0606039 0.268484 -0.48941 -0.841681 -0.21317 0 0 0 255 
-0.0190519 0.173812 0.357316 -0.187077 0.481067 0.825661 0 0 0 255 
0.0265844 0.0806688 0.414033 -0.000185438 0.473656 0.838034 0 0 0 255 
0.0904068 0.15627 -0.129651 0.915138 0.398056 -0.0561618 0 0 0 255 
-0.0289004 0.12373 -0.402062 -0.27516 0.0461502 -0.952346 0 0 0 255 
-0.082675 -0.0164202 0.0674135 -0.966361 -0.0725136 0.205041 0 0 0 255 
-0.0676925 0.0104828 -0.0135384 -0.780321 -0.530777 0.32787 0 0 0 255 
0.0678901 -0.0211231 -0.383389 0.895633 0.044033 -0.415541 0 0 0 255 
0.0854489 0.165031 0.262857 0.104527 -0.649104 -0.556177 0 0 0 255 
0.0278894 -0.236146 0.0791571 -0.744943 -0.420138 0.349989 0 0 0 255 
-0.0492745 0.160377 0.290685 -0.16379 -0.843651 0.251406 0 0 0 255 
0.0258027 0.112953 0.392716 0.165805 0.498842 0.83365 0 0 0 255 
-0.0684548 0.00910189 -0.0191945 -0.773109 -0.558744 0.296241 0 0 0 255 
0.0730339 -0.24048 -0.343802 0.314956 -0.771224 0.223108 0 0 0 255 
0.014893 0.140873 0.37886 -0.136696 0.458506 0.86802 0 0 0 255 
0.035263 -0.0306205 -0.380707 -0.965879 -0.00471871 -0.254467 0 0 0 255 
0.0919059 0.150687 -0.130847 0.924942 0.359789 -0.072033 0 0 0 255 
-0.033762 0.0814502 0.20785 -0.792062 -0.418287 0.434311 0 0 0 255 
-0.0620803 -0.117188 -0.384673 -0.937843 -0.179129 -0.0241738 0 0 0 255 
-0.0804499 0.00893057 -0.160046 -0.803745 -0.560277 -0.171904 0 0 0 255 
-0.0161044 0.221316 -0.386431 -0.708082 0.547573 -0.443737 0 0 0 255 
0.00112908 -0.056672 0.139851 -0.344944 -0.716995 0.501835 0 0 0 255 
-0.0395411 0.121933 0.287196 -0.993306 0.0112212 -0.00723629 0 0 0 255 
-0.0669414 -0.0864629 -0.378345 -0.977106 -0.131095 0.1064 0 0 0 255 
0.0533593 0.0305114 -0.390584 0.664762 0.660021 -0.320221 0 0 0 255 
-0.0107375 0.00089731 -0.301817 -0.274693 -0.86412 -0.346868 0 0 0 255 
-0.032464 0.230578 -0.255957 -0.28859 0.956467 -0.0266752 0 0 0 255 
-0.0514521 -0.0538879 0.0221628 -0.0721602 -0.11012 -0.98131 0 0 0 255 
0.0817006 0.0635365 -0.34378 0.891911 -0.0416626 -0.448688 0 0 0 255 
0.0871892 0.0219304 -0.334226 0.755331 0.562058 -0.300828 0 0 0 255 
-0.00951056 0.0640426 0.329425 -0.533011 -0.825516 0.0534254 0 0 0 255 
0.0333846 0.223399 -0.173104 0.374409 0.908853 0.134602 0 0 0 255 
-0.00674614 -0.0658614 -0.153656 -0.276681 -0.844417 -0.330155 0 0 0 255 
-0.0849993 0.0330611 0.0723336 -0.964505 -0.245961 0.0498443 0 0 0 255 
0.0414439 -0.0859639 -0.395318 -0.830529 -0.0729927 -0.539609 0 0 0 255 
0.0781625 -0.089202 -0.381374 0.973255 0.0394187 -0.18346 0 0 0 255 
-0.0595179 0.161588 0.126736 -0.851924 0.416849 0.309013 0 0 0 255 
-0.0548965 -0.0948315 -0.404297 -0.583939 -0.0845533 -0.792864 0 0 0 255 
-0.053859 -0.195504 -0.405889 -0.77454 -0.124333 -0.579442 0 0 0 255 
-0.0817851 0.112996 0.0454311 -0.964417 0.226449 0.114844 0 0 0 255 
0.0834265 0.00735948 -0.069399 0.782713 -0.607378 0.108011 0 0 0 255 
0.0516941 -0.177901 -0.360277 -0.474567 0.261914 0.800714 0 0 0 255 
-0.0341738 -0.240432 -0.381694 0.117128 -0.816883 -0.36883 0 0 0 255 
-0.0292668 0.149427 0.35633 -0.649729 -0.201465 0.708743 0 0 0 255 
-0.0753572 0.144074 0.0250124 -0.941807 0.30008 0.141104 0 0 0 255 
-0.0754242 0.0279073 0.019697 -0.924021 -0.251682 -0.212392 0 0 0 255 
-0.0790586 0.0818641 0.147316 -0.912303 0.0700531 0.369091 0 0 0 255 
-0.0710555 0.161648 0.0629983 -0.942106 0.331117 0.0310631 0 0 0 255 
0.0332182 -0.154769 0.0669617 -0.38817 -0.220346 0.880245 0 0 0 255 
-0.0325176 0.216435 0.115693 -0.798271 0.56301 0.173088 0 0 0 255 
-0.0237051 -0.18627 -0.407153 0.829196 0.0750742 -0.491523 0 0 0 255 
-0.0785127 0.0084907 0.094393 -0.935608 -0.105289 0.330996 0 0 0 255 
0.0812549 0.138633 -0.351048 0.932433 0.101403 -0.341973 0 0 0 255 
0.024574 -0.10469 0.078163 -0.648608 -0.0843548 0.739696 0 0 0 255 
-0.0334263 -0.0208538 -0.319875 0.666301 -0.35786 0.634826 0 0 0 255 
-0.0867311 0.177268 -0.259086 -0.950957 0.278116 -0.127566 0 0 0 255 
-0.0345183 0.110119 0.241446 -0.971666 -0.196511 0.0829388 0 0 0 255 
-0.0392941 -0.241719 -0.364642 0.0196945 -0.991204 0.012331 0 0 0 255 
0.0736893 0.179985 -0.346977 0.868792 0.41731 -0.220398 0 0 0 255 
-0.0559398 0.19142 0.0675301 -0.875669 0.479946 0.0416306 0 0 0 255 
0.123152 0.200075 0.279724 0.705016 -0.120529 0.391116 0 0 0 255 
0.0950337 0.0521124 -0.0181772 0.930871 -0.295863 0.189827 0 0 0 255 
-0.0202953 -0.0801335 0.0521492 0.963967 0.094616 -0.143 0 0 0 255 
0.0462757 -0.145455 -0.397343 -0.887023 0.00950709 -0.437125 0 0 0 255 
-0.0233186 -0.0638713 0.0473202 0.912133 0.0392646 -0.319466 0 0 0 255 
-0.0900242 0.031164 -0.0432786 -0.888946 -0.402859 0.215331 0 0 0 255 
-0.0120945 0.205547 0.319287 -0.398409 0.857822 0.304717 0 0 0 255 
-0.0487234 -0.0684326 0.0878341 -0.0833713 -0.38013 0.910255 0 0 0 255 
-0.0970887 0.105487 -0.186812 -0.968148 0.0279899 -0.247923 0 0 0 255 
0.0291117 -0.0277888 0.138593 0.739136 -0.504604 0.433428 0 0 0 255 
0.0876761 0.117981 -0.336751 0.951474 0.0745403 -0.297376 0 0 0 255 
0.038361 -0.0319135 -0.0453881 0.597324 -0.797619 0.0812891 0 0 0 255 
-0.044967 -0.153631 -0.368209 -0.20683 -0.0173196 0.96292 0 0 0 255 
-0.071554 0.156645 0.0779739 -0.942239 0.326375 0.0381346 0 0 0 255 
0.0925424 0.178027 0.271092 -0.20676 -0.166904 0.953736 0 0 0 255 
-0.0489049 0.00172122 -0.224018 -0.506726 -0.816434 -0.273348 0 0 0 255 
0.0761498 0.183803 -0.314444 0.880489 0.456667 -0.114829 0 0 0 255 
0.075215 0.179467 -0.341067 0.883695 0.418014 -0.177567 0 0 0 255 
-0.0110314 0.220221 0.188838 -0.221011 0.952975 0.168756 0 0 0 255 
0.0320421 0.20616 0.172894 0.809855 0.561688 0.128351 0 0 0 255 
0.0822351 0.115516 0.0966013 0.974837 0.20978 0.0720084 0 0 0 255 
-0.0743034 -0.0287191 -0.341618 -0.934946 -0.306003 -0.00238929 0 0 0 255 
-0.0372647 0.168094 0.239646 -0.972026 0.196247 0.114534 0 0 0 255 
0.0142176 0.237147 0.089655 0.296055 0.94051 0.0996815 0 0 0 255 
-0.0674176 -0.0545675 0.0342117 -0.73724 -0.26269 -0.586433 0 0 0 255 
0.0288701 0.2225 0.12302 0.787705 0.60515 0.100783 0 0 0 255 
0.0934353 0.0564415 -0.236726 0.872885 -0.386023 0.273482 0 0 0 255 
0.0797579 -0.210782 -0.351762 0.712477 0.448419 0.493123 0 0 0 255 
-0.0861365 0.187347 -0.225824 -0.928186 0.341639 0.0654653 0 0 0 255 
0.0339137 0.0249403 -0.38753 -0.746964 -0.595028 -0.294566 0 0 0 255 
0.0319481 0.0852573 0.23262 0.766835 -0.585664 0.0141186 0 0 0 255 
0.0445186 -0.0290615 -0.0636094 0.609535 -0.784586 0.107213 0 0 0 255 
-0.0965493 0.0880167 -0.243472 -0.903213 -0.0469982 0.39816 0 0 0 255 
-0.0504105 0.128416 0.195608 -0.939237 -0.00222572 0.341881 0 0 0 255 
0.0979205 0.0976755 -0.302383 0.971692 0.0283484 -0.231898 0 0 0 255 
0.105157 0.0705646 -0.260378 0.960896 -0.212394 0.0223461 0 0 0 255 
-0.0695264 -0.216914 0.0463148 -0.946696 0.0672924 -0.208983 0 0 0 255 
0.0684258 0.0110805 0.0156711 0.750485 -0.0750061 -0.62004 0 0 0 255 
-0.0863303 0.0365663 -0.0232557 -0.867842 -0.397016 0.291486 0 0 0 255 
0.0333464 0.217436 -0.0905888 0.436563 0.89716 0.00988879 0 0 0 255 
0.0824558 0.18319 -0.267135 0.934996 0.327213 -0.108522 0 0 0 255 
-0.0154375 0.189417 0.340967 -0.225375 0.738735 0.629323 0 0 0 255 
-0.0437804 0.212494 0.0383407 -0.794532 0.59907 0.0285823 0 0 0 255 
-0.0185556 0.233093 -0.339761 -0.474792 0.873542 -0.0686039 0 0 0 255 
-0.0666905 0.0854733 -0.377706 -0.724612 -0.0663941 -0.679599 0 0 0 255 
0.0315344 0.231282 0.0224867 0.614863 0.770262 -0.0519729 0 0 0 255 
0.0739401 0.0311904 0.0172265 0.827373 -0.495744 -0.0196157 0 0 0 255 
-0.103156 0.113411 -0.0710545 -0.97601 0.166455 0.0966484 0 0 0 255 
0.0547185 0.202361 -0.0604569 0.65587 0.750031 0.0487923 0 0 0 255 
0.0516935 -0.240327 0.0898604 -0.114396 -0.719705 0.507512 0 0 0 255 
0.0897233 0.0890992 -0.210526 0.995726 -0.0004184 0.053092 0 0 0 255 
0.0967529 0.129607 -0.30216 0.961935 0.142473 -0.23024 0 0 0 255 
0.0488403 0.0392906 0.369711 0.681483 -0.659046 -0.237074 0 0 0 255 
0.0673759 0.194405 -0.330352 0.796956 0.573773 -0.158727 0 0 0 255 
0.0410015 0.165333 0.24395 0.967929 0.207964 0.0408046 0 0 0 255 
-0.00314193 -0.05126 0.0104893 -0.185235 -0.965604 -0.146792 0 0 0 255 
-0.00026144 -0.0590507 -0.112479 0.0236155 -0.921984 0.318722 0 0 0 255 
-0.0846076 0.170537 -0.127749 -0.857268 0.506575 0.00716847 0 0 0 255 
0.0721636 0.010695 -0.199742 0.759875 -0.589207 -0.221441 0 0 0 255 
-0.0770227 0.000147451 -0.131453 -0.776567 -0.622577 -0.0756682 0 0 0 255 
0.0865218 0.163471 -0.0747507 0.86803 0.486372 0.0471791 0 0 0 255 
-0.0240771 0.218397 -0.375444 -0.634489 0.637742 -0.407106 0 0 0 255 
0.00384257 -0.0600591 0.134431 -0.0243353 -0.822249 0.461048 0 0 0 255 
0.0187031 -0.0897693 0.064145 -0.971663 0.112332 0.0930718 0 0 0 255 
0.0353584 0.00912406 0.15691 0.691759 -0.41167 0.591246 0 0 0 255 
-0.0903028 0.0578116 0.0767654 -0.991503 -0.0588589 -0.0466016 0 0 0 255 
0.0850788 0.143208 -0.334983 0.957155 0.137399 -0.251883 0 0 0 255 
-0.0313534 -0.0822046 -0.349389 0.560852 -0.415139 0.699225 0 0 0 255 
-0.0429127 0.209898 -0.0749832 -0.520607 0.849693 0.0390425 0 0 0 255 
0.00376313 0.216725 0.22721 -0.0045712 0.990904 0.0936969 0 0 0 255 
0.0355053 -0.0418031 -0.114131 0.604003 -0.79618 -0.0143152 0 0 0 255 
0.0600561 0.215387 -0.276221 0.542734 0.819371 -0.147593 0 0 0 255 
-0.0191518 0.00203535 -0.294234 -0.322805 -0.917531 -0.148385 0 0 0 255 
-0.0293551 0.229713 -0.284984 -0.310169 0.948142 -0.0436184 0 0 0 255 
-0.0357974 0.0903922 0.305469 -0.948238 -0.233216 0.194958 0 0 0 255 
-0.092055 0.164658 -0.248098 -0.971533 0.218113 -0.0698256 0 0 0 255 
-0.0162419 -0.0232067 0.1482 -0.739576 -0.442913 0.490794 0 0 0 255 
0.0682476 0.110489 0.158036 0.789317 0.288039 0.524224 0 0 0 255 
-0.0259102 -0.00616465 -0.240452 -0.408854 -0.839981 -0.353032 0 0 0 255 
-0.024889 -0.0454833 0.0458311 0.602875 -0.443894 -0.489597 0 0 0 255 
-0.0497588 -0.138563 -0.368396 -0.470306 -0.162423 0.796531 0 0 0 255 
0.105525 0.0940685 -0.106971 0.991686 0.0274677 -0.0797954 0 0 0 255 
-0.0277455 -0.210804 -0.397944 0.585062 -0.322433 -0.674189 0 0 0 255 
-0.054259 0.0141139 -0.283988 -0.102428 -0.858361 0.46324 0 0 0 255 
0.0815161 -0.240401 -0.350966 0.491472 -0.760492 0.0938994 0 0 0 255 
0.0280125 -0.225921 0.0467913 -0.875405 -0.2843 -0.31487 0 0 0 255 
-0.068173 -0.00900205 -0.136258 -0.72948 -0.673611 -0.107618 0 0 0 255 
0.0886424 0.035483 -0.0196431 0.876052 -0.429333 0.206937 0 0 0 255 
-0.0100064 -0.0565434 0.0698027 -0.743736 -0.665739 -0.0364722 0 0 0 255 
-0.0354249 0.215027 -0.103017 -0.440312 0.893201 0.046292 0 0 0 255 
0.082225 0.165088 -0.332124 0.93272 0.298131 -0.196359 0 0 0 255 
-0.0542178 -0.120149 -0.365305 -0.659332 -0.257075 0.688575 0 0 0 255 
0.0575646 -0.0709706 -0.406717 0.313088 -0.0346653 -0.850917 0 0 0 255 
-0.0164213 0.145969 -0.413333 -0.864201 0.0527399 -0.494652 0 0 0 255 
-0.028387 -0.240967 -0.366676 0.318171 -0.835918 0.00425116 0 0 0 255 
0.0219057 0.228892 0.118638 0.554031 0.781898 0.137225 0 0 0 255 
0.0505044 0.128068 0.287766 0.986674 0.0914908 -0.116413 0 0 0 255 
0.00989121 0.23209 -0.0305621 0.164693 0.961614 -0.158919 0 0 0 255 
-0.00143378 0.0601458 0.208555 -0.139114 -0.689812 0.700931 0 0 0 255 
-0.0256161 -0.0856026 0.0350747 0.770951 0.163037 -0.56936 0 0 0 255 
0.104922 0.0704523 -0.266044 0.965186 -0.207593 -0.0508345 0 0 0 255 
-0.0393271 0.162975 0.326746 -0.988474 0.0681413 0.0329881 0 0 0 255 
-0.0606961 0.185984 0.0167261 -0.894286 0.43267 -0.0421546 0 0 0 255 
-0.0289476 0.217128 0.142421 -0.779647 0.598871 0.0814573 0 0 0 255 
0.0752205 0.0350861 -0.360812 0.84605 0.191382 -0.454372 0 0 0 255 
0.0148479 0.227399 -0.160688 0.197108 0.963737 0.0852446 0 0 0 255 
0.0463049 0.124247 0.349068 0.899913 0.198344 0.370028 0 0 0 255 
0.00729608 0.220679 0.195778 0.0898933 0.975099 0.150157 0 0 0 255 
0.0160315 -0.0121442 0.162984 0.504126 -0.42342 0.74373 0 0 0 255 
-0.0947177 0.0512487 -0.17467 -0.937099 -0.231669 -0.243313 0 0 0 255 
0.0241969 0.230368 -0.0188124 0.45037 0.865626 -0.160476 0 0 0 255 
-0.0946591 0.0899628 -0.304684 -0.980177 -0.00111292 -0.195574 0 0 0 255 
-0.0661244 -0.101445 -0.383974 -0.965479 -0.108081 -0.0382588 0 0 0 255 
-0.0580028 0.143976 0.155832 -0.950882 0.221263 0.209453 0 0 0 255 
0.0757912 0.0838584 -0.359 0.895658 -0.0992544 -0.429027 0 0 0 255 
0.0716072 0.0274234 -0.369573 0.761548 0.45046 -0.392201 0 0 0 255 
0.0579661 -0.0216118 -0.1063 0.655583 -0.743181 -0.0156672 0 0 0 255 
-0.0912063 0.136357 -0.216872 -0.974155 -0.0278047 0.212874 0 0 0 255 
-0.090443 0.128126 -0.0136383 -0.937653 0.253781 0.213743 0 0 0 255 
-0.0584232 -0.240464 0.0751594 -0.326007 -0.674325 0.369944 0 0 0 255 
0.0827686 0.0222096 0.0894904 0.986305 -0.0345689 0.156395 0 0 0 255 
-0.0324712 0.186956 0.232587 -0.925825 0.34806 0.100631 0 0 0 255 
0.0601756 -0.0142808 -0.153497 0.630474 -0.751575 -0.180729 0 0 0 255 
-0.0278706 0.197496 0.242802 -0.882199 0.4534 0.0581168 0 0 0 255 
-0.0233591 0.219594 -0.0958668 -0.366078 0.924336 0.0237151 0 0 0 255 
-0.00892044 -0.0191421 -0.238648 -0.384575 -0.793248 -0.34549 0 0 0 255 
0.0817115 0.0284163 -0.183411 0.958652 -0.253702 -0.117602 0 0 0 255 
-0.0366106 0.173034 0.234742 -0.96383 0.233548 0.111269 0 0 0 255 
-0.0981346 0.12517 -0.266409 -0.988202 0.14041 0.0324809 0 0 0 255 
0.0201849 0.0170505 -0.356859 -0.814381 -0.438417 -0.332044 0 0 0 255 
0.0616468 0.197234 -0.149387 0.711362 0.701064 0.0180693 0 0 0 255 
-0.0863989 0.0551177 0.0563185 -0.989732 -0.0763155 -0.111449 0 0 0 255 
-0.0918649 0.156797 -0.116548 -0.90764 0.415021 0.00769735 0 0 0 255 
-0.0109914 0.207319 0.313776 -0.392472 0.869578 0.270776 0 0 0 255 
-0.0162927 -0.115561 0.042097 0.923854 -0.0450138 -0.249411 0 0 0 255 
-0.0826818 0.0857425 -0.352961 -0.888345 -0.0581046 -0.452503 0 0 0 255 
0.0769832 0.139423 -0.364741 0.890466 0.0651699 -0.442862 0 0 0 255 
0.0496922 0.205916 0.0142495 0.817438 0.568359 0.0131341 0 0 0 255 
0.0166282 0.0356187 -0.370576 -0.708363 -0.534136 -0.446651 0 0 0 255 
0.0342946 -0.067624 -0.358047 -0.880298 -0.246536 0.299953 0 0 0 255 
-0.0378828 0.150218 0.309733 -0.996066 0.0255427 -0.0565109 0 0 0 255 
-0.10746 0.0988092 -0.118828 -0.996117 0.066896 -0.0350786 0 0 0 255 
-0.0326538 -0.13262 0.0233993 0.502009 -0.0102117 -0.83784 0 0 0 255 
-0.0719475 -0.22755 0.0580587 -0.83862 -0.141689 0.0656959 0 0 0 255 
-0.0585437 0.154921 0.136815 -0.894421 0.343853 0.278428 0 0 0 255 
-0.0481749 0.047411 -0.389991 -0.456455 -0.0773483 -0.873771 0 0 0 255 
-0.074198 0.204421 -0.26795 -0.794521 0.56641 -0.135079 0 0 0 255 
0.103528 0.107672 -0.0474912 0.975979 0.13875 0.112631 0 0 0 255 
-0.110401 0.196852 0.30763 -0.366096 0.783231 0.389521 0 0 0 255 
0.0088467 0.213548 0.265685 0.145873 0.973215 -0.0368282 0 0 0 255 
-0.0447931 -0.0651442 0.0246475 0.056371 -0.0595147 -0.968715 0 0 0 255 
-0.0796394 0.0148871 0.0447131 -0.957048 -0.0428175 -0.234632 0 0 0 255 
0.0792482 -0.183859 -0.386839 0.950785 0.0994029 -0.221652 0 0 0 255 
-0.0197044 -0.0684159 -0.380791 0.963471 0.0555608 -0.21171 0 0 0 255 
0.03573 0.000201149 -0.255522 0.492252 -0.854903 -0.136783 0 0 0 255 
-0.0387024 0.141169 0.292728 -0.992443 0.0768774 -0.0741625 0 0 0 255 
0.0548501 0.147603 0.323389 0.979738 -0.0704386 0.116933 0 0 0 255 
0.0948116 0.148718 -0.0866669 0.915143 0.391683 0.0117044 0 0 0 255 
-0.0626723 0.185912 -0.0136644 -0.80374 0.575006 0.105345 0 0 0 255 
0.0852952 0.027779 0.0501426 0.97342 -0.0152432 -0.208037 0 0 0 255 
-0.0851431 -0.0182844 0.05042 -0.965809 -0.0326928 -0.132063 0 0 0 255 
-0.0827771 0.174779 -0.166615 -0.884051 0.455088 0.0452514 0 0 0 255 
-0.0109998 0.0724486 -0.38978 0.174459 -0.584623 -0.766331 0 0 0 255 
0.0555532 -0.221244 -0.392485 -0.299162 -0.408716 -0.801409 0 0 0 255 
-0.0695674 -0.0275352 0.0997603 -0.563992 -0.35703 0.706252 0 0 0 255 
0.0373477 0.00611225 0.151838 0.671579 -0.428048 0.600221 0 0 0 255 
0.0967834 0.109546 -0.239011 0.924144 0.126027 0.317616 0 0 0 255 
-0.0291851 0.222872 -0.0106291 -0.618301 0.748088 -0.205172 0 0 0 255 
0.0148401 -0.0488771 0.0184919 0.452864 -0.841482 -0.11273 0 0 0 255 
0.102719 0.0990309 -0.0366516 0.977129 0.0871041 0.137033 0 0 0 255 
0.0969559 0.0424461 -0.112526 0.94373 -0.292633 -0.116518 0 0 0 255 
-0.00726844 0.0390133 0.192837 -0.242669 -0.495015 0.82816 0 0 0 255 
-0.0708804 -0.0329587 -0.357128 -0.938487 -0.216182 -0.22805 0 0 0 255 
0.0649522 -0.00176713 -0.0313771 0.793915 -0.579909 0.173097 0 0 0 255 
-0.0740465 0.144267 0.100783 -0.94114 0.315941 0.0914306 0 0 0 255 
-0.0170766 0.00426227 -0.329263 0.773651 -0.502934 0.0671253 0 0 0 255 
-0.0839922 0.164771 -0.328624 -0.951626 0.215935 -0.215921 0 0 0 255 
-0.0739731 0.0167819 0.118785 -0.784799 -0.486209 0.346489 0 0 0 255 
0.0990625 0.113804 -0.142406 0.974336 0.117497 -0.156345 0 0 0 255 
-0.0263685 -0.0808591 -0.395484 0.867819 0.0480933 -0.467345 0 0 0 255 
-0.0547016 -0.0356889 0.101967 -0.0147917 -0.304868 0.934497 0 0 0 255 
-0.0264879 -0.219658 0.0704043 0.81039 0.103876 0.478774 0 0 0 255 
-0.0693881 -0.234111 -0.365981 -0.853077 -0.309063 0.0684227 0 0 0 255 
0.0406994 -0.0331948 0.0291598 -0.433148 -0.250386 -0.808971 0 0 0 255 
0.0453891 -0.0874365 -0.352102 -0.6742 -0.364912 0.622003 0 0 0 255 
-0.0346688 -0.0185529 -0.191138 -0.555892 -0.781615 -0.278298 0 0 0 255 
-0.00666369 0.228138 -0.147855 -0.148767 0.973781 0.0779648 0 0 0 255 
-0.0745633 0.142435 0.0379378 -0.963994 0.253107 0.0621495 0 0 0 255 
0.0544992 0.0812962 0.183465 0.66683 -0.122213 0.726338 0 0 0 255 
0.0306409 0.219168 -0.121441 0.402196 0.910243 0.0392969 0 0 0 255 
0.0221099 0.0381069 -0.388936 -0.715661 -0.694184 -0.0175034 0 0 0 255 
-0.0256993 -0.239163 -0.39556 0.311361 -0.634416 -0.675481 0 0 0 255 
-0.0480478 -0.0281064 -0.054717 -0.656263 -0.732271 0.159668 0 0 0 255 
-0.0953493 0.147172 -0.141068 -0.935956 0.335431 -0.0383718 0 0 0 255 
-0.0618223 0.174288 -0.382997 -0.592937 0.224257 -0.758832 0 0 0 255 
-0.0380796 0.213698 -0.0944656 -0.462815 0.883472 0.0395799 0 0 0 255 
-0.0827108 0.172068 -0.0820736 -0.838108 0.532922 0.0604354 0 0 0 255 
-0.116212 0.183626 0.310368 -0.194225 -0.0858521 0.824736 0 0 0 255 
-0.0720088 0.0821654 0.163324 -0.804276 0.0403265 0.566052 0 0 0 255 
-0.0786475 -0.016414 -0.340455 -0.967806 -0.214238 -0.103442 0 0 0 255 
-0.032565 0.102033 0.253435 -0.959965 -0.219334 -0.0917427 0 0 0 255 
-0.0677673 0.146247 -0.379466 -0.730262 0.0120609 -0.679807 0 0 0 255 
0.0758156 0.0948877 -0.363203 0.866793 -0.114371 -0.480954 0 0 0 255 
-0.00234454 0.0695229 -0.388209 -0.675591 -0.700822 -0.103912 0 0 0 255 
-0.0473564 -0.158537 -0.369115 -0.362226 0.0395116 0.873763 0 0 0 255 
-0.0183381 0.18974 -0.397837 -0.730791 0.180661 -0.619618 0 0 0 255 
0.0518573 0.211767 -0.178544 0.581928 0.771923 0.18492 0 0 0 255 
0.0297618 0.229132 0.00101818 0.595993 0.776511 -0.10704 0 0 0 255 
0.0281107 0.0251485 0.176114 0.549519 -0.396575 0.726218 0 0 0 255 
-0.0185298 0.231925 -0.208857 -0.206295 0.968295 0.110106 0 0 0 255 
-0.0383724 0.143842 0.298662 -0.995441 0.0693642 -0.0184421 0 0 0 255 
0.0365555 0.225308 -0.294961 0.393382 0.913926 -0.0988239 0 0 0 255 
-0.0354367 0.0951539 0.309258 -0.959846 -0.15146 0.221057 0 0 0 255 
-0.0593111 -0.240908 0.0555516 -0.338362 -0.820373 -0.121994 0 0 0 255 
0.0507413 -0.0359552 -0.320691 -0.390591 -0.402291 0.79397 0 0 0 255 
0.00583733 0.044538 0.199051 0.0709874 -0.525837 0.820468 0 0 0 255 
0.0711915 0.187414 -0.0959386 0.766141 0.633405 0.0167964 0 0 0 255 
-0.0850414 0.182754 -0.259796 -0.945506 0.295455 -0.130845 0 0 0 255 
0.0103827 0.215333 0.236824 0.278198 0.941307 0.0805926 0 0 0 255 
0.0145991 0.0501132 0.33256 -0.336236 -0.895591 -0.246135 0 0 0 255 
-0.0224247 -0.0451689 -0.376745 0.954261 0.192693 -0.219845 0 0 0 255 
-0.0391501 0.153877 0.284458 -0.855372 -0.338543 -0.0394075 0 0 0 255 
-0.0412287 -0.0146864 -0.396276 0.206284 0.418198 -0.823478 0 0 0 255 
0.0637748 -0.193562 -0.35125 0.147877 0.469548 0.853832 0 0 0 255 
0.00376746 -0.0496167 -0.0658736 0.111455 -0.972155 0.1481 0 0 0 255 
-0.0551453 0.197273 0.0314797 -0.84969 0.518289 0.0356339 0 0 0 255 
-0.0811189 0.0539543 -0.22922 -0.94125 -0.269949 0.114783 0 0 0 255 
-0.0563604 0.184197 0.298397 0.348642 0.534456 0.523262 0 0 0 255 
0.0734517 -0.00573471 -0.368131 0.908602 0.0705611 -0.377997 0 0 0 255 
0.0779305 -0.0329066 0.0529739 0.922309 -0.179213 -0.330429 0 0 0 255 
-0.0379498 0.143947 0.251319 -0.989759 -0.00952185 0.131742 0 0 0 255 
0.0746916 0.016721 -0.214883 0.808564 -0.558711 -0.162303 0 0 0 255 
0.00710681 0.138973 0.376085 -0.51916 0.345343 0.781128 0 0 0 255 
-0.0217621 -0.0424597 0.0780552 0.0663055 -0.843349 0.441608 0 0 0 255 
-0.0263526 0.0120903 -0.373906 0.853522 -0.283298 -0.431571 0 0 0 255 
-0.0626576 0.017163 -0.255812 -0.450365 -0.870485 -0.0945546 0 0 0 255 
0.0611128 0.202572 -0.329421 0.724203 0.670807 -0.152099 0 0 0 255 
0.000588963 -0.0214117 -0.244108 0.0931519 -0.919207 -0.369081 0 0 0 255 
-0.0234211 -0.00733933 0.149677 -0.732049 -0.43239 0.521317 0 0 0 255 
-0.0550981 -0.204536 0.0215139 -0.693774 0.0715463 -0.708169 0 0 0 255 
0.0773074 -0.0443369 0.0656447 0.96451 -0.241817 0.0450191 0 0 0 255 
0.0579966 0.189714 0.0259157 0.848299 0.519297 0.0484856 0 0 0 255 
0.0370701 -0.0481978 -0.392048 -0.968328 -0.0388016 -0.23655 0 0 0 255 
0.0477586 -0.230025 0.0355922 -0.0119259 -0.659661 -0.733349 0 0 0 255 
0.0674505 -0.105167 -0.400413 0.675864 0.00766172 -0.722359 0 0 0 255 
-0.0576844 -0.195392 -0.366503 -0.722506 0.256526 0.606143 0 0 0 255 
0.0409612 -0.241031 0.0681688 -0.303455 -0.884663 0.0159742 0 0 0 255 
-0.00193062 -0.0553566 -0.0883126 0.0462575 -0.981105 0.180172 0 0 0 255 
-0.054447 0.00681779 -0.226104 -0.445067 -0.851423 -0.275253 0 0 0 255 
0.0511433 0.203542 0.00796821 0.821716 0.565864 0.0125763 0 0 0 255 
-0.0343382 -0.0436089 -0.076236 -0.505004 -0.843767 0.131142 0 0 0 255 
0.0725757 0.192418 -0.305783 0.858737 0.488038 -0.140025 0 0 0 255 
0.068477 -0.00508533 0.0190901 0.649701 -0.162443 -0.675582 0 0 0 255 
-0.0340372 -0.0289474 -0.32334 0.683964 -0.289781 0.656732 0 0 0 255 
0.0844845 0.167486 -0.0997371 0.863161 0.493985 -0.00185416 0 0 0 255 
0.0172725 0.0927294 0.404259 -0.227017 0.584273 0.761237 0 0 0 255 
-0.0189557 -0.02611 -0.20604 -0.704609 -0.626741 -0.309903 0 0 0 255 
0.0752997 0.166136 -0.0136253 0.870725 0.460912 0.165216 0 0 0 255 
0.052634 0.20236 -0.0465506 0.666436 0.741004 0.0419746 0 0 0 255 
0.0544731 0.192226 0.260239 -0.270755 0.557162 -0.717577 0 0 0 255 
-0.00124997 0.0609689 0.290859 -0.383939 -0.92047 0.0152883 0 0 0 255 
0.0393214 -0.0587004 -0.39733 -0.940676 -0.0904887 -0.309987 0 0 0 255 
0.0130666 0.233346 -0.213835 0.149834 0.981731 0.0731929 0 0 0 255 
0.0363951 0.198247 0.288439 0.776367 0.569262 -0.186766 0 0 0 255 
0.0421124 0.217194 0.0469909 0.793612 0.594039 0.0581452 0 0 0 255 
-0.07479 0.00605977 0.0999927 -0.832231 -0.106435 0.499198 0 0 0 255 
0.075091 0.182939 -0.105112 0.804693 0.589787 -0.00338215 0 0 0 255 
-0.0764815 0.141093 0.0877536 -0.964535 0.257552 0.0245089 0 0 0 255 
0.0844819 0.0444028 -0.226032 0.906356 -0.389851 0.101319 0 0 0 255 
0.0343614 0.0139712 0.162152 0.689334 -0.384275 0.613002 0 0 0 255 
0.0388801 -0.0817414 -0.360159 -0.823454 -0.300637 0.404688 0 0 0 255 
-0.0650381 0.198484 -0.153051 -0.714473 0.684931 0.102928 0 0 0 255 
-0.0328632 0.0689792 -0.397702 0.00842309 -0.171757 -0.980374 0 0 0 255 
0.0704146 -0.0314984 0.0333736 0.824975 -0.25987 -0.49527 0 0 0 255 
0.0207044 -0.0721047 0.062246 -0.975981 0.0668446 -0.181582 0 0 0 255 
0.00618093 0.0414418 0.365419 -0.498315 -0.810721 -0.214588 0 0 0 255 
0.0412071 0.19628 -0.382719 0.418305 0.588112 -0.688703 0 0 0 255 
0.071865 0.188825 -0.327464 0.843189 0.517132 -0.138546 0 0 0 255 
-0.0305409 -0.240731 -0.35491 0.296516 -0.771528 0.240909 0 0 0 255 
-0.00365291 0.240436 0.0238964 -0.0791461 0.977664 -0.076572 0 0 0 255 
-0.0252524 -0.228808 0.0433905 0.782277 -0.423501 -0.387334 0 0 0 255 
0.0652861 0.213523 -0.265936 0.561471 0.791429 -0.146837 0 0 0 255 
-0.0174487 0.0714468 0.268253 -0.509383 -0.808388 -0.288731 0 0 0 255 
-0.0780812 0.144346 0.014032 -0.921348 0.330456 0.198528 0 0 0 255 
0.0906587 0.0921521 0.0264237 0.980545 0.094578 0.162964 0 0 0 255 
-0.043391 -0.0362911 -0.0736258 -0.61179 -0.775611 0.122286 0 0 0 255 
0.032993 -0.0200376 -0.375617 -0.969906 -0.0301424 -0.240257 0 0 0 255 
0.0324986 0.0980732 -0.398276 0.29556 -0.134616 -0.926416 0 0 0 255 
-0.00905711 -0.0677333 -0.13091 -0.440869 -0.840486 0.211194 0 0 0 255 
0.0517542 0.0885169 0.27957 0.961954 -0.201276 -0.137373 0 0 0 255 
0.041187 0.226869 -0.255698 0.327652 0.943033 -0.0468274 0 0 0 255 
0.0194559 0.125525 -0.40263 0.0765474 -0.0139595 -0.994234 0 0 0 255 
0.0281397 0.228159 -0.0155962 0.561752 0.793234 -0.15325 0 0 0 255 
0.0849855 0.0124839 -0.109277 0.88133 -0.454097 -0.0851085 0 0 0 255 
-0.0177368 -0.0207281 -0.218494 -0.678315 -0.660587 -0.313772 0 0 0 255 
-0.0905871 0.174928 0.282642 -0.306703 -0.0382001 -0.927683 0 0 0 255 
-0.104203 0.0925575 -0.151562 -0.98614 0.00580018 -0.137737 0 0 0 255 
0.06749 -0.00742895 -0.298251 0.0577044 -0.660221 0.687653 0 0 0 255 
-0.06116 -0.0441668 -0.380515 -0.888367 0.1091 -0.418996 0 0 0 255 
-0.00639907 0.065698 0.386644 -0.910201 0.00101204 0.336147 0 0 0 255 
-0.0329716 0.216966 -0.0224079 -0.640559 0.749337 -0.151487 0 0 0 255 
0.0859158 0.100927 0.0539301 0.982747 0.17438 0.047741 0 0 0 255 
0.0834082 0.0904434 0.127254 0.977522 0.169256 0.118817 0 0 0 255 
-0.103748 0.120379 -0.105433 -0.973957 0.202543 0.0123625 0 0 0 255 
-0.0869704 0.12168 -0.341501 -0.967111 0.0619762 -0.245257 0 0 0 255 
-0.0642613 0.166829 0.105973 -0.880386 0.423015 0.198764 0 0 0 255 
0.0824248 0.115341 0.0733934 0.984715 0.173079 -0.00472876 0 0 0 255 
0.0525831 0.108216 0.337529 0.972396 0.164672 0.0827727 0 0 0 255 
0.0230451 0.0125071 -0.354731 -0.856588 -0.423386 -0.257982 0 0 0 255 
0.0728608 0.00416281 -0.0416344 0.703739 -0.682735 0.167172 0 0 0 255 
0.0411224 -0.149728 0.0281091 0.226881 0.107055 -0.943241 0 0 0 255 
-0.0787691 -0.0113438 -0.343171 -0.963648 -0.152835 -0.170543 0 0 0 255 
0.0660725 0.166292 -0.377632 0.713195 0.173739 -0.666442 0 0 0 255 
-0.055736 -0.0275901 -0.107435 -0.69119 -0.7185 -0.0572253 0 0 0 255 
-0.0679295 -0.239373 0.0876012 -0.625381 -0.397819 0.665787 0 0 0 255 
-0.0612723 0.183193 0.302317 0.111674 0.19755 0.809165 0 0 0 255 
-0.0431629 -0.152856 0.0212712 -0.22435 0.0695791 -0.922867 0 0 0 255 
0.056487 0.0622852 0.395908 0.92356 0.0641574 0.312992 0 0 0 255 
0.0913165 0.0470704 -0.00874216 0.906785 -0.363287 0.200974 0 0 0 255 
0.0431659 0.119251 0.230495 0.973921 -0.107906 0.188673 0 0 0 255 
-0.0287053 -0.0716897 -0.344122 0.643752 -0.330764 0.644773 0 0 0 255 
0.0452184 0.148345 0.233839 0.992973 0.0406779 0.101889 0 0 0 255 
0.0794728 0.020539 -0.272924 0.588037 -0.662082 0.409112 0 0 0 255 
-0.0263691 -0.180656 0.0319459 0.927298 0.0463134 -0.33068 0 0 0 255 
-0.0373312 -0.0105443 -0.39208 0.563989 0.334092 -0.716942 0 0 0 255 
0.072505 0.206648 -0.209055 0.770358 0.524894 0.312073 0 0 0 255 
-0.0546461 0.217305 -0.29789 -0.561817 0.809917 -0.103202 0 0 0 255 
0.0604931 -0.179862 -0.357077 -0.0188918 0.329451 0.921653 0 0 0 255 
0.074647 -0.240873 -0.365729 0.25589 -0.86548 -0.193134 0 0 0 255 
-0.0857365 0.0487861 -0.339099 -0.945098 -0.124417 -0.28784 0 0 0 255 
-0.021191 -0.0923144 -0.386498 0.954419 -0.0144282 -0.227352 0 0 0 255 
0.0571138 -0.0516246 0.0315545 0.35929 -0.257262 -0.857295 0 0 0 255 
0.0575716 -0.190182 -0.352819 -0.184719 0.382374 0.881125 0 0 0 255 
0.0536206 -0.0645922 -0.334721 -0.106912 -0.379783 0.832837 0 0 0 255 
-0.0141054 0.0718898 0.343503 -0.812113 -0.511459 0.170639 0 0 0 255 
-0.000430967 0.213569 0.296095 -0.140654 0.975404 0.0663264 0 0 0 255 
0.0190967 0.179803 -0.396988 0.189126 0.237288 -0.945493 0 0 0 255 
-0.0666834 0.16409 0.0964371 -0.908749 0.397032 0.115286 0 0 0 255 
-0.0342133 -0.00754284 -0.224684 -0.501271 -0.81362 -0.287002 0 0 0 255 
0.035473 -0.22148 -0.369306 -0.957341 0.0981653 -0.146474 0 0 0 255 
-0.0845677 -0.0247437 0.0544561 -0.977227 -0.110485 -0.0212276 0 0 0 255 
0.0376612 0.101182 0.240575 0.944444 -0.236385 -0.0984975 0 0 0 255 
-0.054348 -0.00432486 0.0181023 -0.310269 -0.324597 -0.836029 0 0 0 255 
-0.0472218 0.0111795 0.135351 -0.526414 -0.539656 0.652138 0 0 0 255 
0.00867318 0.213197 0.286093 0.1282 0.977898 -0.0463392 0 0 0 255 
0.0453973 0.193249 0.26677 -0.298476 0.920411 -0.0236967 0 0 0 255 
-0.00854686 -0.0408419 -0.201292 -0.428927 -0.774412 -0.436745 0 0 0 255 
-0.0405641 0.130759 0.229058 -0.973606 -0.101929 0.187599 0 0 0 255 
0.0707176 -0.0685094 0.0596948 0.959999 -0.252316 -0.0497378 0 0 0 255 
-0.0809813 0.00460726 -0.125963 -0.800508 -0.592132 -0.0580645 0 0 0 255 
-0.0790069 0.0243098 0.0975624 -0.945384 -0.307402 0.0949112 0 0 0 255 
-0.0535496 0.222869 -0.25838 -0.435185 0.897421 -0.0696398 0 0 0 255 
0.0235224 -0.0432949 0.0363778 0.447733 -0.713989 -0.319265 0 0 0 255 
-0.00764994 0.0613233 0.209007 -0.13081 -0.723019 0.66084 0 0 0 255 
0.0133197 -0.062365 0.112534 0.63819 -0.729324 0.158493 0 0 0 255 
-0.102891 0.0641736 -0.147187 -0.973668 -0.152187 -0.141687 0 0 0 255 
0.0712797 0.00439874 -0.181423 0.729207 -0.647253 -0.167488 0 0 0 255 
-0.0615951 -0.0580564 0.0271327 -0.575679 -0.231654 -0.755749 0 0 0 255 
-0.0131597 0.2334 -0.209422 -0.172119 0.97798 0.109768 0 0 0 255 
-0.0577479 0.0156141 -0.2532 -0.382775 -0.891117 -0.179531 0 0 0 255 
-0.0589943 -0.14659 0.0378623 -0.948334 -0.01647 -0.222201 0 0 0 255 
0.0829396 0.0564496 -0.34324 0.880768 -0.0194821 -0.467577 0 0 0 255 
0.0845596 0.00369397 0.0545553 0.969194 -0.115616 -0.206365 0 0 0 255 
0.0405652 -0.130413 -0.382369 -0.972331 -0.104418 -0.167898 0 0 0 255 
-0.0272089 0.226334 -0.00679418 -0.598926 0.765597 -0.207141 0 0 0 255 
-0.0542314 0.214488 -0.328405 -0.559933 0.817082 -0.118502 0 0 0 255 
0.101651 0.118115 -0.286591 0.972156 0.139145 -0.141391 0 0 0 255 
0.0966199 0.078154 -0.000412636 0.975288 -0.0693725 0.188029 0 0 0 255 
-0.054437 -0.110039 -0.401528 -0.69434 -0.0932859 -0.690077 0 0 0 255 
-0.0874817 0.0409195 -0.28013 -0.87307 -0.446524 0.15817 0 0 0 255 
-0.081386 0.110018 0.104322 -0.983927 0.1683 0.0207478 0 0 0 255 
-0.0545319 0.159886 0.292685 -0.0146922 -0.814153 0.400716 0 0 0 255 
0.0505505 -0.170428 0.02988 0.647281 0.119949 -0.742148 0 0 0 255 
-0.00923862 0.0675109 0.376674 -0.975448 -0.0132659 0.178245 0 0 0 255 
0.0788333 -0.0616093 -0.361404 0.995823 0.0264305 0.0104411 0 0 0 255 
0.0532332 0.0123005 -0.250039 0.518984 -0.833895 -0.128804 0 0 0 255 
0.0809591 0.187869 0.268595 0.0846259 -0.255325 0.957281 0 0 0 255 
0.0434383 -0.215977 0.0846969 -0.2035 0.538445 0.762235 0 0 0 255 
-0.0518946 0.19832 0.0757899 -0.864344 0.497353 0.0520444 0 0 0 255 
0.058982 0.060286 0.385144 0.96067 -0.0312355 0.0555489 0 0 0 255 
-0.0116237 -0.0547298 0.116398 -0.690003 -0.689216 0.218974 0 0 0 255 
-0.0615057 0.0843251 -0.381489 -0.66925 -0.0528244 -0.738178 0 0 0 255 
0.03641 -0.0320737 -0.0315427 0.612951 -0.784666 0.0600842 0 0 0 255 
0.0884287 0.110659 -0.207566 0.995312 0.0595037 0.06723 0 0 0 255 
-0.0888261 0.158554 -0.203233 -0.97869 0.149978 0.0895492 0 0 0 255 
-0.0331182 -0.00652621 -0.23007 -0.455878 -0.827905 -0.313846 0 0 0 255 
0.0751908 0.17817 -0.0514046 0.811379 0.574748 0.100809 0 0 0 255 
-0.0241125 0.210142 0.207736 -0.691686 0.690093 0.139738 0 0 0 255 
-0.0500083 -0.233584 -0.39677 -0.244437 -0.518726 -0.735232 0 0 0 255 
0.083233 -0.199737 -0.383685 0.952112 0.137143 -0.243147 0 0 0 255 
-0.0280495 -0.00020071 -0.250723 -0.408579 -0.85493 -0.31775 0 0 0 255 
0.103854 0.0793279 -0.0398061 0.984795 -0.0648329 0.121589 0 0 0 255 
0.105533 0.075318 -0.0732649 0.988889 -0.0846798 0.0225557 0 0 0 255 
-0.105521 0.10995 -0.105171 -0.984036 0.14049 0.00925385 0 0 0 255 
0.0114766 -0.000713994 -0.294202 0.415949 -0.779979 -0.4467 0 0 0 255 
-0.0445525 -0.129304 -0.363693 -0.0645391 -0.232992 0.957128 0 0 0 255 
0.0763193 0.152188 -0.363152 0.91852 0.117096 -0.376191 0 0 0 255 
0.0652515 -0.127004 -0.403359 0.569618 0.0273708 -0.796461 0 0 0 255 
-0.0581488 -0.0195282 -0.0626388 -0.708935 -0.689417 0.147054 0 0 0 255 
-0.024929 -0.177597 0.0385654 0.979412 0.0327909 -0.0553811 0 0 0 255 
-0.0368366 0.086935 0.287357 -0.932812 -0.333991 0.00205498 0 0 0 255 
0.0531693 0.110796 0.330829 0.988956 0.0593141 0.0872869 0 0 0 255 
0.0337028 0.153539 -0.398282 0.294225 0.0912658 -0.939067 0 0 0 255 
0.0679544 -0.240095 0.0849992 0.454967 -0.63704 0.382872 0 0 0 255 
-0.0567914 -0.170374 -0.397125 -0.928198 0.0711363 -0.358002 0 0 0 255 
-0.002311 0.12414 -0.408273 0.81424 -0.0116563 -0.574217 0 0 0 255 
-0.0784533 0.132356 0.0981956 -0.970266 0.23329 0.0372561 0 0 0 255 
-0.102929 0.120162 -0.136957 -0.977532 0.175796 -0.059145 0 0 0 255 
0.0395199 -0.0181845 -0.18782 0.554656 -0.777332 -0.293692 0 0 0 255 
0.0330366 0.0619898 -0.393252 0.552183 0.20306 -0.752616 0 0 0 255 
-0.0383261 -0.194049 -0.359447 0.0717833 0.362776 0.900595 0 0 0 255 
-0.00817168 0.102794 0.372424 -0.78676 0.135942 0.577598 0 0 0 255 
-0.0368765 -0.149128 -0.369144 0.291543 -0.0343107 0.88935 0 0 0 255 
0.095354 0.128656 -0.0275366 0.938907 0.282768 0.170321 0 0 0 255 
-0.0757929 -0.0241485 -0.335047 -0.92012 -0.344389 0.05561 0 0 0 255 
-0.0604288 0.181036 0.0747515 -0.893631 0.442639 0.0508437 0 0 0 255 
0.0532378 0.173837 0.256037 0.165246 -0.167619 -0.905966 0 0 0 255 
-0.043843 -0.200071 0.0667795 -0.0495338 0.458242 0.8655 0 0 0 255 
-0.0584063 -0.203095 0.0258233 -0.768819 0.0613244 -0.616086 0 0 0 255 
0.079817 0.178566 -0.196332 0.913293 0.332098 0.182333 0 0 0 255 
0.0825524 0.114664 0.0582778 0.980385 0.194789 0.0064268 0 0 0 255 
0.0161836 0.237803 0.0148169 0.269522 0.946651 -0.0950588 0 0 0 255 
-0.0854467 0.0931003 0.0596706 -0.977739 0.179422 0.0773645 0 0 0 255 
0.0193221 -0.0934988 0.0693717 -0.922745 0.0556647 0.325498 0 0 0 255 
-0.00577695 0.235987 -0.233471 -0.0549186 0.991794 0.0440705 0 0 0 255 
0.0986381 0.0675051 -0.305195 0.972378 -0.0900981 -0.206759 0 0 0 255 
-0.084066 0.0886317 0.0895279 -0.984153 0.169666 0.0287597 0 0 0 255 
0.093699 0.100522 -0.319596 0.968524 0.0739325 -0.230264 0 0 0 255 
0.0704894 -0.0553957 0.0479783 0.893272 -0.240049 -0.379198 0 0 0 255 
0.0574841 0.169554 0.334684 0.927393 0.238484 0.116616 0 0 0 255 
-0.0841235 0.121029 -0.351812 -0.945619 0.0361731 -0.311982 0 0 0 255 
0.0771202 0.0997251 -0.360798 0.879173 -0.105078 -0.456937 0 0 0 255 
0.0790588 0.10773 -0.359271 0.846352 -0.078971 -0.521751 0 0 0 255 
0.0476121 0.142838 0.278722 0.9828 0.151902 -0.0842171 0 0 0 255 
0.0372967 -0.0692933 0.0341869 -0.436275 -0.00839735 -0.884066 0 0 0 255 
0.045116 0.174605 0.25608 0.429418 0.117101 -0.755765 0 0 0 255 
-0.0927243 0.18027 0.296406 0.323264 -0.306892 0.882499 0 0 0 255 
0.00579973 0.232708 -0.0342481 0.0818673 0.982473 -0.163179 0 0 0 255 
0.0223487 0.0568694 0.289162 0.456443 -0.857306 -0.18444 0 0 0 255 
0.0208507 0.0326186 0.390385 -0.13645 -0.909343 0.262758 0 0 0 255 
0.10038 0.108798 -0.0295597 0.964948 0.156849 0.161134 0 0 0 255 
0.0491605 -0.0990357 0.0336684 0.415868 0.0662976 -0.882289 0 0 0 255 
0.0147908 0.0187458 0.180484 0.363817 -0.445039 0.809443 0 0 0 255 
0.0296417 0.0538645 0.325859 0.484435 -0.798341 -0.309573 0 0 0 255 
-0.0963442 0.0349732 -0.0691039 -0.920513 -0.363265 0.120875 0 0 0 255 
-0.0846998 0.130333 0.006559 -0.930737 0.271887 0.23016 0 0 0 255 
-0.0331342 0.213839 -0.0422712 -0.542299 0.830358 -0.0303888 0 0 0 255 
-0.0614024 -0.117966 0.0530159 -0.922658 -0.20546 0.24312 0 0 0 255 
0.0702024 -0.0597122 0.0754553 0.894595 -0.328362 0.294218 0 0 0 255 
0.0353901 0.171005 0.353717 0.187653 0.361391 0.889768 0 0 0 255 
0.0175518 0.214148 0.217158 0.508327 0.8285 0.127832 0 0 0 255 
-0.0851396 0.174039 -0.285298 -0.937282 0.339184 -0.0481788 0 0 0 255 
0.0637195 -0.0636119 -0.400333 0.799558 0.0280013 -0.56161 0 0 0 255 
0.0784234 0.149417 0.00906556 0.906888 0.383597 0.17026 0 0 0 255 
0.0178621 0.232159 -0.211203 0.193163 0.974301 0.0766999 0 0 0 255 
-0.0258526 -0.0471905 -0.387472 0.943379 0.141121 -0.297677 0 0 0 255 
0.0371217 0.0774667 -0.393072 0.438063 -0.121267 -0.886302 0 0 0 255 
-0.0914082 0.151105 -0.0595748 -0.915583 0.380123 0.113106 0 0 0 255 
0.0153039 -0.0548868 -0.145287 0.78773 -0.581219 -0.181821 0 0 0 255 
0.0701235 0.163729 0.0263411 0.930116 0.353178 0.0325587 0 0 0 255 
-0.0429712 0.151558 0.216306 -0.970851 0.0873798 0.208162 0 0 0 255 
0.0834027 -0.00888941 -0.337456 0.916554 -0.318801 -0.0728797 0 0 0 255 
0.0392158 0.151256 0.353606 0.521243 0.126486 0.789033 0 0 0 255 
-0.056266 0.00335321 -7.47425e-005 -0.813412 -0.471767 0.338439 0 0 0 255 
0.00227484 0.206409 0.325024 -0.0839257 0.846402 0.481271 0 0 0 255 
0.0686315 0.183266 -0.0310412 0.816319 0.567234 0.0901023 0 0 0 255 
0.0462559 0.0994236 0.378076 0.859396 0.436213 0.240375 0 0 0 255 
