ply
format ascii 1.0
comment VCGLIB generated
element vertex 627
property float x
property float y
property float z
property float nx
property float ny
property float nz
property uchar red
property uchar green
property uchar blue
property uchar alpha
element face 0
property list uchar int vertex_indices
end_header
0.191037 -0.0443969 0.0700757 -0.868924 -0.0434541 -0.493035 255 255 255 255 
0.161008 -0.0802401 -0.148994 -0.861415 0.302851 0.407732 255 255 255 255 
0.160244 0.0113621 0.197681 -0.156105 -0.847551 0.507236 255 255 255 255 
0.168645 -0.157152 -0.28405 0.198168 -0.750306 0.63069 255 255 255 255 
0.0332759 0.120503 -0.279289 -0.336003 -0.798422 -0.499625 255 255 255 255 
-0.0601555 -0.0640184 0.219123 0.0954669 -0.991398 0.0895277 255 255 255 255 
0.103317 -0.107865 -0.074518 -0.222329 -0.881777 -0.415979 255 255 255 255 
-0.0885998 -0.114477 -0.32099 0.260783 0.962369 0.0764123 255 255 255 255 
-0.0729051 0.075 0.132697 0.014182 -0.993347 -0.11428 255 255 255 255 
-0.087089 -0.0252228 0.308066 -0.727882 0.174062 -0.663242 255 255 255 255 
-0.164575 -0.0696309 -0.232665 0.615999 0.765285 -0.186773 255 255 255 255 
0.0705661 -0.0774836 -0.0934578 -0.222986 -0.84056 -0.493697 255 255 255 255 
-0.136564 -0.0975172 -0.272508 0.402345 0.901526 -0.159278 255 255 255 255 
0.0472663 0.00653742 -0.288626 -0.0453132 0.0107879 0.998915 255 255 255 255 
0.106874 0.0398003 -0.123175 0.125722 -0.754722 0.643885 255 255 255 255 
0.181158 -0.0305473 -0.252669 0.676775 -0.165208 0.717413 255 255 255 255 
-0.0476057 0.0956217 0.0535829 0.153195 -0.973871 -0.167654 255 255 255 255 
0.0874813 -0.10769 -0.389212 0.0144621 0.184566 0.982714 255 255 255 255 
-0.080142 0.123418 -0.389766 0.0181238 -0.256017 0.966502 255 255 255 255 
-0.10727 -0.0426139 0.263893 -0.31997 -0.882196 0.345469 255 255 255 255 
-0.0948016 0.121536 -0.215415 -0.0325635 -0.951421 -0.306165 255 255 255 255 
-0.199795 0.00469268 -0.342086 0.943459 0.0158804 0.331108 255 255 255 255 
0.0739205 -0.152376 -0.341506 -0.263569 -0.963612 0.0445337 255 255 255 255 
0.00045758 0.152633 -0.357952 -0.272629 -0.95632 0.105476 255 255 255 255 
-0.0221179 -0.0783883 -0.0591953 -0.199682 -0.953993 -0.22366 255 255 255 255 
0.142579 0.0779636 -0.392813 -0.130531 -0.27866 0.951478 255 255 255 255 
-0.0832496 0.0908982 -0.0572818 0.308763 -0.944228 -0.114454 255 255 255 255 
0.208015 -0.0582976 0.0422626 -0.922377 0.0510384 -0.382905 255 255 255 255 
-0.0251397 -0.0389816 -0.262665 0.348188 -0.280365 0.894517 255 255 255 255 
-0.224304 0.0383931 0.197685 -0.834785 -0.177572 -0.521155 255 255 255 255 
-0.101358 -0.100072 -0.176116 0.229086 0.965829 -0.121216 255 255 255 255 
-0.21042 0.0357433 -0.287069 0.989789 -0.0587682 0.129864 255 255 255 255 
-0.160235 0.0369351 -0.0644889 0.894981 -0.37404 -0.24311 255 255 255 255 
0.0923398 -0.121943 -0.0046169 -0.122264 -0.992266 -0.0214525 255 255 255 255 
-0.123753 0.0507568 -0.393562 0.204425 -0.0320145 0.978359 255 255 255 255 
-0.0730806 -0.0140142 -0.207689 0.970434 -0.133223 -0.201267 255 255 255 255 
-0.0481261 -0.0685674 -0.00778679 -0.398794 -0.916987 0.00990552 255 255 255 255 
-0.115195 -0.0949655 -0.19169 0.296368 0.948341 -0.113201 255 255 255 255 
0.0916441 0.0404702 0.315848 0.138878 -0.941613 -0.306722 255 255 255 255 
0.0404471 0.0207348 -0.389615 -0.0303032 -0.0576996 0.997874 255 255 255 255 
0.141634 -0.0961206 0.0552655 0.284767 -0.878932 0.382605 255 255 255 255 
0.188604 0.0592642 -0.0144027 -0.75669 -0.626663 -0.186316 255 255 255 255 
0.139651 0.039964 -0.182201 0.150894 -0.9564 -0.250061 255 255 255 255 
0.15192 -0.0919989 -0.189093 -0.129722 -0.988322 0.0799479 255 255 255 255 
0.150173 -0.0661843 0.24577 0.326888 -0.924487 -0.196134 255 255 255 255 
0.0521913 0.0847174 -0.283545 0.189422 0.214348 0.958214 255 255 255 255 
0.228271 -0.0193854 -0.372535 -0.879834 0.140663 0.45399 255 255 255 255 
0.128382 -0.0361528 -0.143871 0.610662 -0.0077379 0.791853 255 255 255 255 
0.0733104 -0.0843026 -0.086374 -0.227597 -0.848375 -0.477975 255 255 255 255 
-0.145127 0.0739626 -0.392748 0.323772 -0.0705912 0.943498 255 255 255 255 
-0.134927 -0.0837856 -0.166411 0.417852 0.886778 -0.197544 255 255 255 255 
0.0782477 0.0348351 0.218869 -0.0244902 -0.999188 0.0319991 255 255 255 255 
0.0610658 -0.0456185 0.291906 -0.493991 -0.775861 0.392444 255 255 255 255 
-0.105387 -0.0307082 0.0336706 -0.480762 -0.87684 -0.00439912 255 255 255 255 
0.00458164 -0.0424582 0.244514 0.270389 -0.931318 0.244001 255 255 255 255 
-0.0702331 0.16679 -0.347783 -0.083511 -0.996015 -0.0312968 255 255 255 255 
-0.149957 0.139242 -0.259764 0.222595 -0.915006 -0.336474 255 255 255 255 
0.111982 -0.0480968 -0.392123 -0.055693 0.0403161 0.997634 255 255 255 255 
0.183615 -0.0719073 -0.106471 -0.807664 0.353842 0.471671 255 255 255 255 
-0.202949 -0.0354955 -0.301444 0.96264 0.270668 0.00789068 255 255 255 255 
-0.00540845 -0.102724 -0.279234 0.224355 -0.601363 0.766829 255 255 255 255 
0.111149 -0.0177 -0.252103 0.926519 -0.0548405 -0.372229 255 255 255 255 
0.245328 0.0883641 -0.369835 -0.773746 -0.628557 0.0789472 255 255 255 255 
0.111204 0.00558345 0.151409 -0.452004 -0.850069 -0.270325 255 255 255 255 
0.179204 -0.0313069 -0.389721 -0.304944 0.0315467 0.951848 255 255 255 255 
-0.0286249 0.0809492 -0.14888 0.81427 0.0238095 -0.579998 255 255 255 255 
-0.18798 0.0329878 0.0506257 -0.992037 0.122128 -0.0307834 255 255 255 255 
0.187658 0.0420307 0.0148618 -0.722124 -0.604452 -0.336415 255 255 255 255 
-0.0454723 -0.107687 -0.274677 0.249029 -0.737322 0.627965 255 255 255 255 
0.227856 -0.0419722 0.231833 0.512884 -0.772684 -0.374046 255 255 255 255 
0.152616 0.0440379 0.305855 -0.336703 -0.905435 -0.258491 255 255 255 255 
-0.168501 0.00309882 -0.117379 0.955422 0.107569 -0.274951 255 255 255 255 
-0.0836239 -0.039658 0.0445275 -0.451527 -0.891313 0.0410518 255 255 255 255 
-0.177407 0.101145 -0.201521 0.633888 -0.743114 -0.214401 255 255 255 255 
-0.0532904 -0.055448 0.0748735 -0.383105 -0.914631 0.129157 255 255 255 255 
0.064307 0.0218634 -0.390251 -0.0312601 -0.063339 0.997502 255 255 255 255 
-0.0419438 -0.0551312 -0.132621 0.447743 -0.739568 -0.502558 255 255 255 255 
0.186347 0.055785 -0.251888 -0.536751 -0.520492 -0.664068 255 255 255 255 
-0.152387 0.0616333 0.0853104 0.2853 -0.957306 -0.0465724 255 255 255 255 
0.0484189 -0.0488433 0.255687 -0.429466 -0.849376 0.306787 255 255 255 255 
-0.0138778 -0.0551338 0.218382 0.214765 -0.97116 0.103561 255 255 255 255 
0.0273184 -0.10438 0.0198543 -0.253076 -0.966787 0.0357254 255 255 255 255 
0.158734 -0.0126988 0.143357 0.620093 -0.784527 -0.00144152 255 255 255 255 
0.15773 -0.171755 -0.384723 -0.145156 0.283547 0.947909 255 255 255 255 
0.0516296 -0.105059 -0.0330942 -0.224331 -0.946858 -0.230512 255 255 255 255 
-0.0471767 -0.0730154 -0.091808 0.0800885 -0.921684 -0.379585 255 255 255 255 
0.116108 -0.0439918 0.148068 0.539975 -0.839251 0.0639182 255 255 255 255 
-0.164524 0.0549817 0.253248 0.270052 -0.894587 -0.356071 255 255 255 255 
-0.147989 -0.0770165 -0.194173 0.480162 0.859992 -0.172797 255 255 255 255 
0.06262 0.0947523 -0.287726 0.160286 0.236985 0.9582 255 255 255 255 
-0.207715 0.00837043 -0.300731 0.98815 0.0666424 0.138267 255 255 255 255 
0.18931 -0.00187138 0.0594667 -0.777384 -0.40366 -0.482424 255 255 255 255 
0.0136672 0.0986294 0.0634415 -0.121995 -0.932808 -0.339096 255 255 255 255 
-0.0355679 -0.00158356 0.244429 -0.615585 -0.0666989 -0.785243 255 255 255 255 
0.157375 0.0838873 -0.390614 -0.160643 -0.270047 0.949351 255 255 255 255 
0.00927316 -0.122748 -0.387265 0.138105 0.315347 0.938874 255 255 255 255 
0.134132 -0.0730411 0.28249 -0.0168158 -0.99368 0.110987 255 255 255 255 
0.0883614 -0.0463114 -0.115911 0.417102 0.280234 0.864578 255 255 255 255 
-0.118271 -0.000111059 0.300492 -0.573501 -0.400346 0.714717 255 255 255 255 
-0.192809 -0.0306618 0.221046 -0.316741 -0.948424 0.0129222 255 255 255 255 
-0.0689478 0.13307 -0.211103 -0.105448 -0.992238 0.0659115 255 255 255 255 
-0.0624682 0.0223321 0.285341 -0.747185 -0.0576422 -0.662111 255 255 255 255 
-0.117151 0.0188252 -0.391355 0.159665 -0.0077651 0.987141 255 255 255 255 
-0.204097 -0.0298285 -0.305895 0.971137 0.235253 0.0393592 255 255 255 255 
0.175031 -0.117888 -0.00623815 0.346119 -0.922694 0.169819 255 255 255 255 
-0.0582721 -0.0501837 -0.162227 0.806965 -0.40408 -0.430728 255 255 255 255 
0.102983 0.0130804 0.135274 -0.454194 -0.831963 -0.318661 255 255 255 255 
0.0340328 -0.0457398 -0.286856 0.0132323 -0.0442189 0.998934 255 255 255 255 
-0.182405 0.0577584 0.0480547 -0.96393 0.266122 0.00415832 255 255 255 255 
0.143484 -0.0613793 0.330761 0.145551 -0.810708 0.567068 255 255 255 255 
0.196326 0.101768 -0.317127 -0.272633 -0.888419 -0.369301 255 255 255 255 
-0.119659 -0.0345881 0.160431 -0.24342 -0.968475 -0.0529386 255 255 255 255 
-0.201152 0.0767864 -0.243448 0.86431 -0.496986 -0.0772883 255 255 255 255 
0.0943917 -0.063067 0.295428 -0.287602 -0.912601 0.290593 255 255 255 255 
-0.0635281 -0.0105133 -0.252409 0.438971 -0.169504 0.882368 255 255 255 255 
0.141095 -0.05985 0.0902237 0.389948 -0.830202 0.398379 255 255 255 255 
0.0504715 0.0318092 0.165399 -0.128341 -0.981052 -0.145139 255 255 255 255 
-0.113639 0.138812 -0.256187 -0.0366526 -0.902535 -0.429054 255 255 255 255 
-0.127905 -0.038164 0.187553 -0.218828 -0.975526 -0.021504 255 255 255 255 
0.134837 0.0548198 -0.395342 -0.115249 -0.188503 0.975287 255 255 255 255 
-0.136809 0.0584105 -0.0452834 0.585953 -0.809375 -0.0396276 255 255 255 255 
-0.180762 -0.0978606 -0.353482 0.600949 0.797316 0.056107 255 255 255 255 
0.140915 0.100849 -0.298517 -0.0875376 -0.855778 -0.509884 255 255 255 255 
-0.06964 0.136264 -0.149614 -0.0287368 -0.984153 -0.174975 255 255 255 255 
0.187687 -0.0181013 -0.106263 -0.851075 0.0691966 0.520464 255 255 255 255 
0.114182 0.123658 -0.356164 -0.135319 -0.99076 0.00917004 255 255 255 255 
-0.0199943 -0.00299915 -0.390121 0.00090569 -0.00504559 0.999987 255 255 255 255 
0.136235 -0.0293659 0.144571 0.654132 -0.755811 0.0293517 255 255 255 255 
-0.198052 0.0812188 -0.231974 0.834997 -0.539804 -0.106737 255 255 255 255 
0.100253 -0.137819 -0.285359 -0.287809 -0.606128 0.741468 255 255 255 255 
-0.0961744 0.0139238 0.341572 -0.850783 -0.228324 0.473325 255 255 255 255 
-0.164687 0.116123 -0.230432 0.551932 -0.800049 -0.235144 255 255 255 255 
0.0763913 -0.061517 -0.390691 0.00761881 0.099381 0.99502 255 255 255 255 
-0.0131518 0.15866 -0.348822 -0.219823 -0.975524 0.00555154 255 255 255 255 
0.140456 0.0468992 0.283466 -0.193866 -0.979292 -0.0583389 255 255 255 255 
-0.189119 0.0190003 0.0599668 -0.998373 0.0388341 -0.0417475 255 255 255 255 
-0.0983637 -0.0465888 -0.391706 0.0713415 0.151268 0.985915 255 255 255 255 
-0.0717734 -0.0407388 0.27033 0.651667 -0.452747 0.608564 255 255 255 255 
0.220036 0.00748312 0.214527 -0.802624 -0.582502 -0.128397 255 255 255 255 
0.0121525 0.116745 -0.263768 -0.342993 -0.751425 -0.563663 255 255 255 255 
0.0767311 0.127446 -0.347963 -0.2032 -0.977656 0.0538407 255 255 255 255 
-0.0265066 0.160057 -0.365304 -0.128842 -0.963072 0.236415 255 255 255 255 
0.162829 -0.0563596 0.0820921 0.427274 -0.809586 0.402502 255 255 255 255 
0.157086 -0.154257 -0.389658 -0.134866 0.244507 0.960223 255 255 255 255 
-0.0214434 0.104194 0.0444401 0.0757637 -0.976544 -0.201549 255 255 255 255 
-0.136905 0.140383 -0.388685 0.295556 -0.339551 0.892945 255 255 255 255 
0.0697512 0.0352448 0.27051 0.139258 -0.984522 -0.106413 255 255 255 255 
0.108216 0.0384048 0.238858 -0.0585414 -0.988959 0.136136 255 255 255 255 
-0.159936 -0.0534231 -0.392227 0.296358 0.153086 0.942728 255 255 255 255 
0.174764 0.0337334 0.241938 -0.267144 -0.910499 0.315636 255 255 255 255 
-0.0137213 0.106515 -0.253541 0.48774 0.188536 0.852387 255 255 255 255 
-0.184632 -0.00289865 0.127361 -0.68484 -0.691111 -0.230998 255 255 255 255 
0.0309922 0.0320608 0.191599 -0.024624 -0.991781 -0.125556 255 255 255 255 
-0.0195044 0.092143 -0.101549 -0.591488 -0.799422 0.105197 255 255 255 255 
-0.146899 0.167353 -0.312639 0.253685 -0.949029 -0.187051 255 255 255 255 
-0.0420193 0.124128 -0.256905 -0.269929 -0.724139 -0.634635 255 255 255 255 
0.122037 -0.122379 -0.0450406 -0.113503 -0.971238 -0.209318 255 255 255 255 
0.125543 -0.117373 -0.0676678 -0.178385 -0.924869 -0.33585 255 255 255 255 
-0.000116476 -0.138509 -0.377351 0.234095 0.605689 0.760487 255 255 255 255 
0.219475 -0.0734009 -0.35165 -0.971243 0.199537 0.129892 255 255 255 255 
-0.185229 0.0519132 -0.130867 0.852233 -0.413904 -0.319971 255 255 255 255 
-0.194861 0.0220022 0.13051 -0.967819 -0.122487 -0.219826 255 255 255 255 
0.118841 -0.0795325 -0.219497 0.990902 0.0926763 -0.0975926 255 255 255 255 
0.0688091 0.1194 -0.381317 -0.0492108 -0.375112 0.925672 255 255 255 255 
0.086281 -0.0663388 -0.390661 0.00197686 0.0974 0.995243 255 255 255 255 
-0.189846 0.056425 0.154383 0.453577 -0.889637 0.0530466 255 255 255 255 
-0.182272 0.00485477 0.0834996 -0.794386 -0.58938 -0.146906 255 255 255 255 
-0.00840996 0.0985563 -0.0501111 -0.130231 -0.983068 0.128905 255 255 255 255 
-0.163953 0.0633135 0.201682 0.311558 -0.94165 -0.127389 255 255 255 255 
0.182926 -0.035673 0.0811296 -0.853145 -0.130525 -0.505081 255 255 255 255 
-0.132227 -0.0860982 -0.176084 0.397952 0.901033 -0.172552 255 255 255 255 
0.0733927 -0.0189014 -0.119532 0.122333 0.217525 0.968358 255 255 255 255 
0.125871 0.014945 -0.395321 -0.112077 -0.057221 0.992051 255 255 255 255 
0.0537251 0.0939799 -0.285593 0.200699 0.23244 0.951678 255 255 255 255 
-0.0808021 -0.0274987 0.344638 -0.849657 -0.410697 0.330774 255 255 255 255 
0.110478 0.0343427 -0.265235 0.906747 -0.143207 -0.396612 255 255 255 255 
-0.0013579 0.0440662 0.202703 -0.40727 -0.900476 -0.152556 255 255 255 255 
-0.133784 0.17713 -0.375669 0.114605 -0.953181 0.279842 255 255 255 255 
0.199991 0.0429737 -0.391208 -0.312621 -0.0681971 0.947427 255 255 255 255 
0.217582 -0.0117406 -0.0577193 -0.96121 -0.174383 0.213695 255 255 255 255 
-0.0683508 -0.0604331 -0.0293616 -0.429698 -0.902797 0.017782 255 255 255 255 
0.0246712 0.049525 -0.276752 0.212124 0.065188 0.975066 255 255 255 255 
0.0649399 -0.150418 -0.37697 0.108832 0.479642 0.870689 255 255 255 255 
0.207461 -0.0943745 -0.383176 -0.415241 0.0486387 0.90841 255 255 255 255 
0.0732343 0.094709 -0.0238641 -0.178282 -0.967344 0.18017 255 255 255 255 
0.0999755 0.00167231 0.374203 0.139342 -0.534611 -0.833531 255 255 255 255 
0.12549 -0.175446 -0.369586 -0.192006 -0.973349 -0.125405 255 255 255 255 
0.191778 -0.0821165 0.0343923 0.589852 -0.7096 0.385412 255 255 255 255 
-0.0149026 -0.0459189 0.175143 0.100946 -0.989135 0.106878 255 255 255 255 
0.0397821 0.0677864 0.0865156 -0.273473 -0.866344 -0.417925 255 255 255 255 
0.125148 -0.171066 -0.321343 -0.165242 -0.968432 0.186641 255 255 255 255 
-0.175938 0.0674444 0.0178044 0.372917 -0.925035 0.0724128 255 255 255 255 
0.0976894 -0.0666247 0.22476 0.0416847 -0.996266 -0.0756111 255 255 255 255 
0.130753 -0.0602177 -0.392156 -0.0956928 0.0374207 0.994707 255 255 255 255 
-0.141326 0.0863378 -0.393675 0.303816 -0.108691 0.94651 255 255 255 255 
0.00599074 -0.0853166 0.0855704 -0.22874 -0.937474 0.262335 255 255 255 255 
0.0553921 0.0752588 -0.0751461 -0.190006 -0.89929 0.393922 255 255 255 255 
0.156602 -0.0571094 -0.250682 -0.335627 -0.0142948 0.941887 255 255 255 255 
0.206995 0.110911 -0.371294 -0.392673 -0.919473 -0.0194282 255 255 255 255 
0.0473982 -0.0545064 -0.100334 0.255783 0.307497 0.916526 255 255 255 255 
-0.0126562 0.0318081 -0.137245 0.79767 0.00640069 -0.60306 255 255 255 255 
-0.0251859 -0.0574153 0.234242 0.247703 -0.955215 0.161885 255 255 255 255 
-0.148734 -0.0191108 0.0905801 -0.563655 -0.818374 -0.112055 255 255 255 255 
0.00676346 0.103035 -0.388879 -0.101081 -0.232163 0.967411 255 255 255 255 
-0.174672 -0.091044 -0.308382 0.632784 0.761777 -0.138849 255 255 255 255 
0.220763 -0.0707381 -0.339373 -0.97533 0.20242 0.0880783 255 255 255 255 
-0.0514094 -0.0302506 -0.390295 0.0344994 0.0805378 0.996154 255 255 255 255 
0.02507 0.0294577 0.219884 0.0801961 -0.985206 -0.15145 255 255 255 255 
-0.0159911 -0.0743848 -0.266053 0.304482 -0.436581 0.846574 255 255 255 255 
-0.12217 0.0620016 -0.394518 0.196007 -0.051557 0.979246 255 255 255 255 
0.0841639 -0.0224179 0.368634 -0.472474 -0.242118 0.847436 255 255 255 255 
0.0898041 0.117873 -0.307869 -0.21607 -0.875797 -0.431618 255 255 255 255 
-0.0995444 0.0782741 0.0703448 0.2465 -0.964731 -0.0923701 255 255 255 255 
-0.176175 -0.0713561 -0.266185 0.737888 0.648132 -0.188274 255 255 255 255 
0.0364786 0.00896467 -0.389618 -0.0239424 -0.0361681 0.999059 255 255 255 255 
-0.0559488 -0.117623 -0.355055 0.27799 0.930641 0.237968 255 255 255 255 
-0.123998 0.165745 -0.306176 0.0840873 -0.968193 -0.235651 255 255 255 255 
-0.242365 -0.0257462 0.237144 0.881795 0.417524 -0.219344 255 255 255 255 
0.0347813 0.053487 -0.39005 -0.0403573 -0.144536 0.988676 255 255 255 255 
-0.0577649 0.100095 -0.0290644 0.185615 -0.982448 -0.0185293 255 255 255 255 
-0.0707491 -0.0606158 -0.0418394 -0.426322 -0.904539 0.00761182 255 255 255 255 
-0.213805 0.0520632 -0.230205 0.952384 -0.293515 -0.0825391 255 255 255 255 
0.0743027 0.107573 -0.385592 -0.0396444 -0.350924 0.935564 255 255 255 255 
0.155829 -0.0709532 -0.392206 -0.186725 0.0299586 0.981955 255 255 255 255 
-0.013597 -0.0252777 0.200436 0.856926 -0.470673 -0.210107 255 255 255 255 
0.199115 -0.0635816 -0.266579 0.648739 -0.2048 0.732935 255 255 255 255 
0.186249 -0.134854 -0.388731 -0.254616 0.146573 0.95587 255 255 255 255 
-0.196097 0.0809171 -0.201397 0.81608 -0.55523 -0.160418 255 255 255 255 
0.0275695 -0.10425 0.0283252 -0.244119 -0.966794 0.0755994 255 255 255 255 
0.188649 -0.0271969 -0.259453 0.676361 -0.15689 0.719667 255 255 255 255 
-0.0369372 -0.0658402 0.0826227 -0.34479 -0.922623 0.172879 255 255 255 255 
-0.0786782 0.00316043 -0.234229 0.981566 -0.0862147 -0.170576 255 255 255 255 
0.103392 -0.10345 -0.0826541 -0.232719 -0.865971 -0.442647 255 255 255 255 
0.0413187 -0.0882016 -0.38962 0.028783 0.165212 0.985838 255 255 255 255 
0.00652903 -0.0976765 0.0330503 -0.278242 -0.95674 0.085024 255 255 255 255 
-0.0471386 0.00737794 -0.389993 0.00819704 -0.00376207 0.999959 255 255 255 255 
-0.0775981 0.0504385 0.322341 -0.842203 -0.178765 -0.508662 255 255 255 255 
-0.144151 0.154083 -0.280628 0.212525 -0.932817 -0.291009 255 255 255 255 
-0.0967072 -0.104407 -0.379417 0.193119 0.82571 0.530007 255 255 255 255 
-0.0873271 -0.103627 -0.177897 0.155655 0.982266 -0.104522 255 255 255 255 
-0.120601 -0.0315697 0.136654 -0.306026 -0.950252 -0.0580507 255 255 255 255 
-0.0745696 -0.0461633 0.311356 -0.444233 -0.849747 0.28388 255 255 255 255 
0.163671 0.0355209 0.240286 -0.22299 -0.917788 0.328544 255 255 255 255 
0.140103 0.0701202 -0.269731 0.0388719 -0.783398 -0.620304 255 255 255 255 
0.178817 -0.0683745 -0.11512 -0.817378 0.32631 0.474779 255 255 255 255 
-0.0826366 0.13158 -0.200847 0.59857 0.288617 0.747272 255 255 255 255 
0.00984246 -0.137024 -0.311722 -0.00359152 -0.818391 0.57465 255 255 255 255 
0.0817011 0.00395889 -0.125117 0.0179468 0.179957 0.983511 255 255 255 255 
-0.0450037 -0.0651785 0.0343478 -0.421691 -0.902993 0.0823433 255 255 255 255 
0.00147521 -0.0326857 -0.390115 0.0198225 0.0469627 0.9987 255 255 255 255 
0.0835523 -0.0648958 0.25959 -0.318163 -0.926006 0.203187 255 255 255 255 
-0.165958 0.061356 0.0623948 0.315578 -0.948221 -0.0358749 255 255 255 255 
-0.0486763 -0.0667104 0.00573417 -0.414683 -0.909348 0.0335374 255 255 255 255 
0.0253921 0.0297034 0.295132 0.733119 -0.340241 -0.588874 255 255 255 255 
0.0206935 -0.0360916 0.255935 -0.496868 -0.763375 0.412771 255 255 255 255 
0.131824 -0.164821 -0.29487 -0.106739 -0.900789 0.420935 255 255 255 255 
0.135912 0.0461726 0.272323 -0.156766 -0.987525 0.0148075 255 255 255 255 
0.203873 0.0118382 -0.0827683 -0.921742 -0.183867 0.341445 255 255 255 255 
0.0138891 0.0544553 0.108251 -0.235125 -0.900984 -0.364615 255 255 255 255 
-0.201666 -0.0309548 0.22936 -0.336871 -0.941535 -0.00544785 255 255 255 255 
-0.0412618 0.102101 0.0333222 0.165102 -0.978456 -0.123953 255 255 255 255 
0.0148576 -0.0152678 -0.282532 0.106153 -0.0579175 0.992662 255 255 255 255 
0.205856 -0.122264 -0.309827 -0.956891 0.287329 -0.0424452 255 255 255 255 
0.0667699 -0.127309 -0.385847 0.0366932 0.258301 0.965367 255 255 255 255 
-0.143316 0.0158958 -0.0439367 -0.760001 -0.455733 -0.463363 255 255 255 255 
0.167587 -0.0451481 -0.248828 -0.324975 0.00833491 0.945686 255 255 255 255 
-0.0500434 -0.0192334 -0.389961 0.0228982 0.0472979 0.998618 255 255 255 255 
-0.183475 0.10182 -0.310737 0.914219 -0.388424 0.115459 255 255 255 255 
-0.119545 -0.044981 -0.393447 0.123438 0.13813 0.982692 255 255 255 255 
0.190207 -0.0525948 0.228717 0.436189 -0.866963 -0.241071 255 255 255 255 
-0.152074 0.0574268 -0.0280121 0.473149 -0.873728 0.112824 255 255 255 255 
-0.134898 -0.0297071 0.268394 -0.356132 -0.795982 0.489473 255 255 255 255 
-0.0457569 0.0801636 0.216556 -0.344903 -0.921012 -0.181049 255 255 255 255 
0.0955331 -0.16102 -0.358864 -0.254861 -0.966515 -0.0299019 255 255 255 255 
-0.181002 0.036655 -0.377543 0.717258 -0.0539853 0.694713 255 255 255 255 
0.0143559 0.10773 -0.00830299 -0.0917266 -0.991973 0.0870424 255 255 255 255 
0.0395596 0.0345051 0.139789 -0.196486 -0.945296 -0.260401 255 255 255 255 
-0.124088 0.124387 -0.19681 0.221359 -0.945499 -0.238812 255 255 255 255 
-0.103661 -0.0578524 -0.391817 0.0872118 0.202973 0.975293 255 255 255 255 
-0.191213 0.00755088 0.268801 -0.508461 0.0769725 0.857638 255 255 255 255 
-0.186228 0.0283376 -0.372566 0.763233 -0.0455788 0.644514 255 255 255 255 
0.202113 -0.0120567 -0.270334 0.684671 -0.144595 0.714366 255 255 255 255 
0.164128 0.0743341 -0.0444846 -0.417065 -0.876255 0.241319 255 255 255 255 
0.0504749 0.0898551 0.0587609 -0.272973 -0.882214 -0.383646 255 255 255 255 
0.00806298 -0.0676652 -0.0924412 -0.0359143 -0.886812 -0.460733 255 255 255 255 
0.0227287 -0.0383213 0.168311 -0.292285 -0.253803 -0.922038 255 255 255 255 
-0.0737039 0.089436 -0.229266 -0.584085 -0.362887 0.726056 255 255 255 255 
0.188813 -0.0155684 0.183551 0.517841 -0.837991 -0.172079 255 255 255 255 
-0.152486 0.128961 -0.244711 0.248026 -0.904612 -0.346641 255 255 255 255 
0.146281 -0.107426 -0.245973 0.0138937 -0.583593 0.811928 255 255 255 255 
-0.184164 0.0486531 0.0121918 -0.969546 0.20218 -0.138216 255 255 255 255 
0.0359512 0.0462199 -0.109855 -0.3433 -0.778175 0.525917 255 255 255 255 
0.0521621 0.100498 -0.0130122 -0.166265 -0.978438 0.122539 255 255 255 255 
0.0736876 0.128293 -0.377794 -0.0557823 -0.463077 0.884561 255 255 255 255 
0.130256 -0.126116 -0.0231524 -0.0240439 -0.996628 -0.0784516 255 255 255 255 
0.128658 -0.0659655 0.236833 0.345824 -0.90504 -0.247607 255 255 255 255 
0.0354149 -0.0260375 0.305767 -0.616882 -0.565696 0.547215 255 255 255 255 
-0.0767669 0.01098 -0.222771 0.973219 -0.0855639 -0.213361 255 255 255 255 
0.13393 0.0582011 0.0409211 -0.501994 -0.74761 -0.434836 255 255 255 255 
-0.178101 0.0587673 0.235226 0.321588 -0.896415 -0.304994 255 255 255 255 
-0.105341 -0.033298 0.00869576 -0.523435 -0.851821 -0.0204195 255 255 255 255 
-0.0963138 -0.0445869 -0.0418454 -0.527821 -0.849268 0.0121565 255 255 255 255 
0.154569 0.0333452 0.332443 -0.350402 -0.806067 -0.476943 255 255 255 255 
-0.0637194 0.0807772 0.201286 -0.187548 -0.970624 -0.150714 255 255 255 255 
-0.116154 0.0688057 0.17418 0.153743 -0.98469 -0.0821465 255 255 255 255 
0.110263 0.0124008 -0.259767 0.913019 -0.139016 -0.383499 255 255 255 255 
0.0140713 0.0100238 -0.390455 -0.0194481 -0.0411298 0.998964 255 255 255 255 
-0.135815 0.0668208 0.0835108 0.276283 -0.959233 -0.0595008 255 255 255 255 
-0.186011 0.0141951 -0.376817 0.754685 -0.020367 0.655771 255 255 255 255 
-0.0839254 0.0880512 -0.0354424 0.331963 -0.942082 -0.0477587 255 255 255 255 
0.21196 0.0276144 -0.0153094 -0.873701 -0.467444 -0.134695 255 255 255 255 
0.156619 0.0786605 -0.0373067 -0.401074 -0.89011 0.216435 255 255 255 255 
0.139321 -0.0336273 -0.392496 -0.143709 0.0167358 0.989479 255 255 255 255 
-0.00926825 0.0467296 -0.131585 0.788534 0.0370924 -0.613871 255 255 255 255 
-0.21779 0.0287714 -0.23574 0.997209 0.026228 -0.0699 255 255 255 255 
-0.160879 0.00820028 -0.388856 0.401004 -0.0132387 0.915981 255 255 255 255 
-0.0914409 -0.0946095 -0.136556 0.197711 0.961782 -0.189436 255 255 255 255 
0.238335 0.00479355 -0.352042 -0.992302 0.110765 0.0553863 255 255 255 255 
-0.0168287 -0.114566 -0.283858 0.202279 -0.727475 0.655639 255 255 255 255 
0.00597074 0.0951607 -0.0533874 -0.175055 -0.96506 0.194974 255 255 255 255 
-0.139258 0.0921262 -0.116359 0.577297 -0.740781 -0.34347 255 255 255 255 
-0.0742137 0.0946465 -0.0574348 0.265248 -0.958608 -0.103513 255 255 255 255 
-0.085172 0.138678 -0.164402 0.0280383 -0.990573 -0.134088 255 255 255 255 
0.116858 -0.0247135 -0.271283 -0.43031 0.0248234 0.90234 255 255 255 255 
-0.0603194 0.0223637 -0.187029 0.907775 -0.0937286 -0.408852 255 255 255 255 
-0.109838 0.0739084 -0.0258023 0.422164 -0.906463 0.010115 255 255 255 255 
-0.200902 -0.0599938 -0.354606 0.954195 0.251169 0.162563 255 255 255 255 
0.109752 -0.0972577 0.0639508 0.179736 -0.903126 0.389947 255 255 255 255 
-0.0826723 -0.055123 -0.0584256 -0.474442 -0.8802 0.0123658 255 255 255 255 
-0.0581919 -0.00410501 -0.183136 0.901719 -0.133747 -0.411114 255 255 255 255 
0.165953 -0.06147 -0.237573 0.519766 -0.283389 0.805937 255 255 255 255 
0.120725 0.0401499 0.244591 -0.0993954 -0.977829 0.184313 255 255 255 255 
0.206105 0.0167026 0.232322 -0.757412 -0.644698 -0.103402 255 255 255 255 
0.0627043 -0.0804485 0.103141 0.10469 -0.921049 0.375111 255 255 255 255 
0.0693924 0.0972521 -0.0156677 -0.179816 -0.973717 0.139793 255 255 255 255 
-0.19311 -0.050464 -0.272455 0.848791 0.503875 -0.160201 255 255 255 255 
0.16767 -0.0629343 -0.391172 -0.239556 0.0244558 0.970574 255 255 255 255 
-0.112818 -0.0941304 -0.220282 0.296962 0.949534 -0.10099 255 255 255 255 
0.105469 -0.1171 -0.0540139 -0.178987 -0.936339 -0.302048 255 255 255 255 
0.180157 0.117093 -0.358539 -0.251697 -0.962218 -0.103853 255 255 255 255 
-0.0571266 0.132599 -0.261373 -0.241339 -0.767906 -0.59336 255 255 255 255 
0.0388879 0.00167693 -0.288012 -0.00340462 0.000294823 0.999994 255 255 255 255 
0.201133 -0.0362897 -0.271091 0.663008 -0.152296 0.732957 255 255 255 255 
-0.145215 0.0723811 0.0219599 0.344084 -0.938258 0.0357584 255 255 255 255 
-0.148467 0.0263501 0.280624 -0.549163 0.134783 0.824775 255 255 255 255 
-0.101417 0.125978 -0.239644 -0.118793 -0.849701 -0.513709 255 255 255 255 
0.180958 -0.0115774 -0.390602 -0.307851 0.0306641 0.95094 255 255 255 255 
0.0849349 -0.155926 -0.335524 -0.262354 -0.963995 0.0434141 255 255 255 255 
0.146122 0.105686 -0.308134 -0.110092 -0.892668 -0.437062 255 255 255 255 
-0.200103 -0.061954 -0.319649 0.940622 0.337399 0.0373099 255 255 255 255 
-0.210947 0.0210329 -0.28697 0.993935 0.0350603 0.104228 255 255 255 255 
0.131467 0.0050136 -0.200412 0.974834 -0.214514 0.0606777 255 255 255 255 
-0.0525591 0.117502 -0.38916 -0.0216824 -0.224839 0.974155 255 255 255 255 
-0.169833 0.0288245 -0.385443 0.484027 -0.0220038 0.874776 255 255 255 255 
0.0986972 0.00924318 -0.281894 -0.339356 0.0476056 0.939453 255 255 255 255 
0.210549 -0.0891237 -0.281205 0.668605 -0.26458 0.694957 255 255 255 255 
-0.00161192 -0.00910127 -0.275212 0.194827 -0.0953881 0.976188 255 255 255 255 
0.15511 -0.0572482 -0.174563 -0.885538 0.239002 0.398371 255 255 255 255 
-0.103485 -0.0357408 -0.00517947 -0.539027 -0.842099 -0.0178591 255 255 255 255 
-0.0876719 0.169883 -0.34903 -0.0340607 -0.99932 0.0140977 255 255 255 255 
0.0981791 -0.0359406 -0.280814 -0.379954 0.0306261 0.924498 255 255 255 255 
0.197188 0.0839969 -0.388081 -0.277428 -0.181686 0.943411 255 255 255 255 
-0.131013 0.0491497 0.282864 0.165111 -0.910262 -0.379685 255 255 255 255 
0.146353 -0.0196283 -0.392712 -0.172778 0.00978519 0.984912 255 255 255 255 
0.209771 0.0347926 -0.0275894 -0.874622 -0.481023 -0.0604477 255 255 255 255 
0.113571 -0.0423963 -0.270787 -0.423819 -0.00660628 0.905723 255 255 255 255 
-0.0466262 -0.0407988 -0.157699 0.598283 -0.617381 -0.510782 255 255 255 255 
0.221863 -0.0235682 -0.00682767 -0.994319 -0.062653 -0.0860517 255 255 255 255 
-0.0161015 -0.0444521 0.197968 0.818432 -0.500527 -0.282209 255 255 255 255 
0.151759 -0.185435 -0.364662 -0.13703 -0.981025 -0.137159 255 255 255 255 
-0.0564185 0.102438 -0.197782 0.933451 -0.308188 -0.183546 255 255 255 255 
0.201754 -0.0576955 0.25105 0.420049 -0.883218 -0.208533 255 255 255 255 
0.142165 -0.126415 -0.0164328 0.0550345 -0.998324 -0.0178751 255 255 255 255 
-0.0723144 -0.0305773 -0.202492 0.966381 -0.186856 -0.176613 255 255 255 255 
-0.200311 0.0641657 -0.292758 0.957071 -0.259135 0.129861 255 255 255 255 
-0.140518 0.0527923 -0.0311419 -0.837231 0.416779 -0.354033 255 255 255 255 
0.0443055 -0.00740092 -0.289126 -0.039237 0.0072025 0.999204 255 255 255 255 
0.2097 -0.0171097 -0.0772036 -0.923304 -0.104238 0.369653 255 255 255 255 
0.0101961 -0.00444448 -0.390202 -0.00837029 -0.0136897 0.999871 255 255 255 255 
-0.0663429 -0.069084 -0.239927 0.340411 -0.61352 0.71254 255 255 255 255 
-0.155779 0.117318 -0.217964 0.413269 -0.867048 -0.278276 255 255 255 255 
-0.0496969 -0.047914 0.243078 0.633153 -0.493284 0.596481 255 255 255 255 
-0.15188 -0.0144325 0.0673561 -0.601015 -0.793042 -0.0993204 255 255 255 255 
0.00619778 0.0349333 0.177035 -0.163649 -0.974131 -0.155842 255 255 255 255 
0.13945 -0.122447 -0.0565756 -0.0950059 -0.969872 -0.224325 255 255 255 255 
0.0941683 -0.036444 0.364712 -0.25856 -0.772455 0.580052 255 255 255 255 
0.206682 -0.137562 -0.360888 -0.923677 0.359503 0.132586 255 255 255 255 
0.145499 0.0430631 -0.394572 -0.136218 -0.126075 0.982624 255 255 255 255 
-0.207204 -0.000985492 -0.3003 0.988121 0.103168 0.113899 255 255 255 255 
-0.155909 0.0528308 0.260991 0.236381 -0.903016 -0.358728 255 255 255 255 
-0.051206 0.0786346 0.104322 0.00982534 -0.981634 -0.190522 255 255 255 255 
-0.00466093 0.0832916 -0.390365 -0.0652061 -0.180051 0.981494 255 255 255 255 
0.00532063 0.0306668 -0.138095 -0.154329 0.0815182 0.984651 255 255 255 255 
-0.142933 -0.0176138 0.0559312 -0.561194 -0.824055 -0.0774249 255 255 255 255 
-0.108289 0.125484 -0.199528 0.0959077 -0.967681 -0.23323 255 255 255 255 
-0.179534 0.115257 -0.317457 0.899903 -0.418344 0.123141 255 255 255 255 
0.0831908 -0.114235 -0.0421191 -0.198052 -0.94345 -0.265851 255 255 255 255 
-0.19804 -0.0366126 -0.256742 0.879228 0.450733 -0.154262 255 255 255 255 
0.217732 -0.0436818 -0.286968 0.668274 -0.151878 0.728247 255 255 255 255 
-0.0915908 0.0570968 0.288783 0.1006 -0.917185 -0.385553 255 255 255 255 
-0.075135 -0.108483 -0.373494 0.241413 0.91556 0.321667 255 255 255 255 
-0.0431963 0.0270715 -0.168066 0.858426 -0.0651982 -0.508777 255 255 255 255 
0.0483451 0.0768832 0.0750956 -0.284254 -0.861716 -0.420292 255 255 255 255 
0.0849407 0.0113249 -0.286104 -0.264697 0.0419688 0.963418 255 255 255 255 
0.142911 -0.140892 -0.269999 -0.0187015 -0.668267 0.743687 255 255 255 255 
0.124237 0.0459066 0.27302 -0.089229 -0.99601 -0.00166944 255 255 255 255 
0.00935765 0.0174428 0.247833 0.786497 -0.505899 -0.354245 255 255 255 255 
-0.126123 0.0637671 0.23214 0.175766 -0.949549 -0.259737 255 255 255 255 
-0.170406 0.0442565 -0.384001 0.462375 -0.0255574 0.886316 255 255 255 255 
0.0154495 0.0959115 -0.0466794 -0.162107 -0.964944 0.206408 255 255 255 255 
-0.223464 0.0237097 0.249318 -0.589715 0.121652 0.798396 255 255 255 255 
0.20713 -0.0221149 -0.276007 0.671281 -0.141751 0.727522 255 255 255 255 
0.133308 -0.126232 -0.00535211 0.0589914 -0.997601 0.0362139 255 255 255 255 
0.0157074 0.0107035 0.283477 0.757155 -0.38606 -0.526947 255 255 255 255 
0.0733768 0.0566005 0.0807861 -0.368093 -0.809517 -0.457374 255 255 255 255 
-0.154214 0.0621919 0.217789 0.25948 -0.942824 -0.209171 255 255 255 255 
-0.0686173 0.0596538 -0.391126 0.00642431 -0.0761825 0.997073 255 255 255 255 
-0.196362 0.017878 -0.350516 0.903483 -0.0302146 0.427557 255 255 255 255 
-0.094988 -0.0907909 -0.385636 0.115231 0.392331 0.912578 255 255 255 255 
0.174197 0.0564713 -0.251008 0.053811 -0.802759 -0.59387 255 255 255 255 
0.124484 -0.090135 -0.208671 -0.103779 -0.982334 0.155725 255 255 255 255 
0.0581209 0.0330688 0.251651 0.136373 -0.984956 -0.106134 255 255 255 255 
0.153416 0.0322858 -0.394047 -0.159469 -0.0805276 0.983913 255 255 255 255 
-0.0710918 0.124979 -0.249163 -0.22391 -0.759637 -0.610586 255 255 255 255 
0.136074 0.00994025 0.0957544 -0.589862 -0.640661 -0.491545 255 255 255 255 
0.22781 -0.0264435 -0.368421 -0.965371 0.1584 0.20729 255 255 255 255 
0.0930435 -0.108674 -0.0644571 -0.214835 -0.898822 -0.382053 255 255 255 255 
-0.0605219 -0.046271 0.117706 -0.235598 -0.960732 0.146589 255 255 255 255 
0.035145 0.0998113 0.0529754 -0.208828 -0.917925 -0.337349 255 255 255 255 
-0.150853 0.00576581 -0.0382427 0.984419 -0.0511135 -0.168249 255 255 255 255 
-0.182855 0.103124 -0.27453 0.850278 -0.525696 -0.0259081 255 255 255 255 
-0.0661927 0.141592 -0.270294 -0.194783 -0.855732 -0.479357 255 255 255 255 
0.0682127 -0.112131 -0.0318717 -0.20761 -0.954212 -0.215352 255 255 255 255 
0.00613416 0.111328 0.0314129 -0.0533586 -0.981235 -0.185286 255 255 255 255 
0.224321 0.00357156 0.209192 -0.809016 -0.572553 -0.13295 255 255 255 255 
-0.0127053 0.110409 0.00541504 0.0526284 -0.998347 -0.0230887 255 255 255 255 
-0.107265 -0.111618 -0.331685 0.267069 0.961725 0.0613146 255 255 255 255 
0.114181 0.122147 -0.339155 -0.145536 -0.984357 -0.0993041 255 255 255 255 
0.174466 0.0050131 -0.239354 0.77873 -0.195536 0.596108 255 255 255 255 
0.0742289 0.0360419 0.283435 0.146725 -0.980199 -0.132971 255 255 255 255 
-0.0539407 0.0668788 0.275211 -0.208895 -0.89984 -0.38295 255 255 255 255 
-0.148466 -0.0309725 -0.392781 0.262469 0.0612966 0.962992 255 255 255 255 
-0.0967467 0.00401674 0.321699 -0.643726 -0.40953 0.646454 255 255 255 255 
-0.0105528 0.108309 -0.0117112 0.00850402 -0.998517 0.0537757 255 255 255 255 
0.0299665 -0.0564897 -0.107519 -0.0530263 -0.85418 -0.517266 255 255 255 255 
-0.193308 0.0537982 0.249908 0.364207 -0.855098 -0.368999 255 255 255 255 
-0.0226589 -0.131831 -0.336841 0.286403 0.932923 0.21824 255 255 255 255 
-0.0651638 0.138205 -0.386369 -0.00652371 -0.294349 0.955676 255 255 255 255 
-0.0601425 -0.0659314 -0.0423434 -0.385818 -0.922249 -0.0245148 255 255 255 255 
-0.0752916 0.0574594 -0.218429 0.952126 -0.08042 -0.294939 255 255 255 255 
-0.0430413 0.0576371 -0.390844 -0.0148113 -0.092685 0.995585 255 255 255 255 
0.140261 -0.0558254 -0.39223 -0.13281 0.0275664 0.990758 255 255 255 255 
0.10737 -0.0506249 0.176273 0.374799 -0.914187 -0.154234 255 255 255 255 
-0.0549647 0.103123 -0.085416 -0.207985 -0.96183 -0.177834 255 255 255 255 
0.221005 -0.0388398 0.255434 0.749541 -0.383112 0.539827 255 255 255 255 
-0.0538565 -0.0320276 -0.171287 0.863731 -0.251351 -0.436797 255 255 255 255 
0.136657 0.0639898 -0.100644 -0.224061 -0.882334 0.413863 255 255 255 255 
0.199934 -0.0210477 0.296143 0.698717 -0.426829 0.574118 255 255 255 255 
-0.067542 -0.0421806 0.130042 -0.201506 -0.972493 0.116849 255 255 255 255 
-0.0886433 -0.0547784 0.21444 -0.101456 -0.990444 0.0934149 255 255 255 255 
0.110529 0.101643 -0.390152 -0.0706793 -0.405474 0.91137 255 255 255 255 
0.0897526 -0.100995 -0.0755965 -0.2294 -0.870974 -0.434488 255 255 255 255 
-0.109834 -0.0331318 -0.0268439 -0.582572 -0.81235 -0.0264228 255 255 255 255 
0.200556 -0.0264753 -0.270293 0.67035 -0.147036 0.727332 255 255 255 255 
-0.0609198 0.0935921 -0.390582 -0.0108999 -0.162238 0.986691 255 255 255 255 
-0.0464421 -0.0620063 0.244249 0.185379 -0.967521 0.171868 255 255 255 255 
0.0711317 0.046405 -0.0979144 0.712062 0.0344791 0.701269 255 255 255 255 
0.210244 -0.0671917 0.0277897 0.635836 -0.666592 0.38906 255 255 255 255 
-0.163891 -0.0137657 0.105582 -0.635259 -0.75435 -0.165533 255 255 255 255 
-0.150644 0.0365256 -0.0383084 -0.862001 0.386256 -0.32827 255 255 255 255 
0.169991 0.0477395 -0.229718 0.151103 -0.848664 -0.50689 255 255 255 255 
0.12294 -0.00295467 0.379135 0.0569758 -0.532414 -0.844564 255 255 255 255 
0.0704879 0.052163 -0.102555 -0.107804 -0.830237 0.546887 255 255 255 255 
0.0607094 -0.0998259 -0.0533685 -0.219617 -0.91169 -0.347261 255 255 255 255 
-0.0617251 -0.0638999 -0.0283134 -0.410362 -0.911911 0.00459525 255 255 255 255 
0.130769 0.036087 -0.197218 0.943268 -0.327212 0.0563673 255 255 255 255 
0.13009 -0.0712177 0.301728 -0.0647869 -0.975712 0.209257 255 255 255 255 
0.0794039 -0.0533819 0.167766 0.135049 -0.990271 0.0335523 255 255 255 255 
0.187003 0.0653364 -0.0364019 -0.550348 -0.817763 0.168467 255 255 255 255 
-0.0655089 -0.0510646 0.0305231 -0.453465 -0.889333 0.0587868 255 255 255 255 
0.110654 -0.0350977 0.372758 -0.174431 -0.805709 0.566045 255 255 255 255 
0.117708 -0.0926524 -0.123647 -0.251821 -0.914375 -0.317026 255 255 255 255 
-0.203937 0.0609109 -0.180908 0.885656 -0.414992 -0.208317 255 255 255 255 
-0.0584795 -0.0516686 0.0858678 -0.351222 -0.926852 0.132625 255 255 255 255 
-0.147244 -0.0242965 0.120754 -0.507316 -0.848431 -0.15098 255 255 255 255 
0.0532043 -0.0653155 -0.100736 -0.178883 -0.845259 -0.503526 255 255 255 255 
-0.160125 0.0586902 0.239759 0.261798 -0.915243 -0.306254 255 255 255 255 
0.129847 -0.0725623 0.289106 -0.0489721 -0.987232 0.151572 255 255 255 255 
0.0207501 0.131939 -0.290121 -0.331391 -0.840955 -0.427755 255 255 255 255 
-0.0449195 0.115768 -0.181637 0.899831 -0.432113 -0.0598564 255 255 255 255 
-0.0170637 0.0544871 0.229581 -0.505283 -0.83394 -0.221887 255 255 255 255 
-0.0620973 -0.0294802 0.276287 -0.704678 0.167704 -0.689423 255 255 255 255 
-0.0800062 -0.0550111 0.203044 -0.0587464 -0.997168 0.0469617 255 255 255 255 
-0.196338 0.0240215 0.139329 -0.962345 -0.108764 -0.249122 255 255 255 255 
0.0401039 -0.0390571 -0.391098 0.0125183 0.0663308 0.997719 255 255 255 255 
-0.129031 -0.00964825 -0.392263 0.19538 0.0177368 0.980567 255 255 255 255 
0.0603446 -0.0623997 0.139214 0.125977 -0.944659 0.3029 255 255 255 255 
-0.0543423 0.0323616 -0.248395 0.496512 -0.00947844 0.867978 255 255 255 255 
-0.149454 -0.0223098 0.110534 -0.551216 -0.821468 -0.14612 255 255 255 255 
0.104184 -0.112668 -0.0647321 -0.203601 -0.907814 -0.366634 255 255 255 255 
0.234597 -0.00847619 -0.355584 -0.985548 0.139927 0.0954755 255 255 255 255 
0.149121 -0.0615228 0.0836591 0.397861 -0.822751 0.405941 255 255 255 255 
-0.0826847 0.0219071 -0.390308 0.0428488 -0.00698871 0.999057 255 255 255 255 
0.0874941 0.112308 -0.295825 -0.220927 -0.848111 -0.481559 255 255 255 255 
-0.124014 0.00716215 0.298829 -0.567016 -0.341231 0.749702 255 255 255 255 
0.0664186 -0.046423 0.302033 -0.477862 -0.773933 0.415543 255 255 255 255 
-0.19676 0.058435 -0.315371 0.951171 -0.192643 0.241169 255 255 255 255 
0.139744 0.00497919 0.185432 -0.151028 -0.830882 0.53556 255 255 255 255 
-0.0571343 0.0628202 -0.390959 -0.00688022 -0.0929358 0.995648 255 255 255 255 
0.0443537 0.0517582 -0.390173 -0.0372127 -0.144028 0.988874 255 255 255 255 
-0.117049 0.094503 -0.101395 0.456048 -0.834492 -0.309262 255 255 255 255 
0.0484733 -0.104417 0.0522528 -0.130053 -0.964726 0.22889 255 255 255 255 
-0.0490923 0.102551 -0.02307 0.157529 -0.9875 -0.00526128 255 255 255 255 
-0.0141203 -0.136671 -0.322682 0.281673 0.938716 0.198676 255 255 255 255 
0.0271422 -0.00619063 -0.286253 0.0474928 -0.0195237 0.998681 255 255 255 255 
0.132416 -0.136745 -0.26898 -0.118188 -0.646363 0.753821 255 255 255 255 
0.245447 0.0594149 -0.323389 -0.976183 -0.192004 -0.100999 255 255 255 255 
-0.12956 0.0275247 -0.391746 0.228234 -0.0141595 0.973503 255 255 255 255 
-0.100917 0.0593778 0.278133 0.115334 -0.919866 -0.374893 255 255 255 255 
0.0720264 -0.0582388 0.145614 0.174413 -0.954339 0.242522 255 255 255 255 
-0.212354 -0.000312645 -0.232973 0.963137 0.244664 -0.111831 255 255 255 255 
-0.177835 0.0355536 -0.0158109 -0.948051 0.163687 -0.272773 255 255 255 255 
0.0442921 -0.0337416 0.301927 -0.573551 -0.651643 0.496388 255 255 255 255 
-0.106403 0.0705645 0.195229 0.122047 -0.983273 -0.135197 255 255 255 255 
0.0288152 0.0921234 -0.0503539 -0.179244 -0.952779 0.245119 255 255 255 255 
0.139605 -0.0951896 -0.154847 -0.225239 -0.964955 -0.134648 255 255 255 255 
-0.145272 -0.107941 -0.36589 0.354376 0.923142 0.149088 255 255 255 255 
-0.186822 -0.0190049 0.168085 -0.563212 -0.783545 -0.26239 255 255 255 255 
0.200435 -0.0111456 0.0520979 -0.828347 -0.31604 -0.462558 255 255 255 255 
0.133514 0.12019 -0.343432 -0.138625 -0.98324 -0.118416 255 255 255 255 
0.0718948 -0.104656 -0.0536871 -0.218981 -0.911253 -0.348807 255 255 255 255 
0.217596 -0.032799 -0.286547 0.666791 -0.142315 0.73153 255 255 255 255 
0.203638 0.0169281 0.0221667 -0.794233 -0.497846 -0.348345 255 255 255 255 
0.176819 -0.0597104 0.239208 0.387464 -0.900078 -0.199325 255 255 255 255 
0.147116 -0.125755 -0.00899039 0.115384 -0.992579 0.0383907 255 255 255 255 
0.114401 0.0193183 0.101644 -0.508783 -0.726983 -0.461124 255 255 255 255 
0.00161615 0.0235647 0.228896 0.84118 -0.490944 -0.226696 255 255 255 255 
-0.143949 0.0563564 0.254882 0.20805 -0.918165 -0.337178 255 255 255 255 
0.208305 -0.123303 -0.325617 -0.956709 0.29095 0.00745393 255 255 255 255 
0.0777228 0.0280632 0.345345 0.29328 -0.690361 -0.661353 255 255 255 255 
-0.0810215 0.168573 -0.34399 -0.055219 -0.998446 -0.00746133 255 255 255 255 
0.0173507 0.00529349 0.291645 0.754476 -0.370036 -0.54207 255 255 255 255 
-0.0115686 -0.0704144 -0.0897124 -0.00310188 -0.906717 -0.421728 255 255 255 255 
0.0671019 -0.115643 0.00055096 -0.179042 -0.983651 -0.0193525 255 255 255 255 
-0.171538 0.0422279 -0.10525 0.913008 -0.290996 -0.285898 255 255 255 255 
-0.0143403 -0.0393421 0.261595 0.348778 -0.884645 0.309446 255 255 255 255 
-0.115668 0.0695423 0.145193 0.165658 -0.984226 -0.062104 255 255 255 255 
0.00681908 0.150379 -0.341759 -0.298958 -0.954027 -0.0213742 255 255 255 255 
0.239137 0.0379743 -0.297431 0.709404 -0.145478 0.689625 255 255 255 255 
-0.0797153 0.0774496 0.206428 -0.0290485 -0.984751 -0.171529 255 255 255 255 
-0.0836826 -0.0856047 -0.112551 0.155078 0.970718 -0.183459 255 255 255 255 
-0.131566 -0.10911 -0.335506 0.324194 0.945789 0.0195161 255 255 255 255 
-0.0293275 0.154295 -0.313798 -0.210967 -0.937732 -0.275956 255 255 255 255 
0.144033 0.044315 -0.148211 -0.080215 -0.988098 0.131256 255 255 255 255 
-0.00966974 -0.0745929 -0.0803741 -0.0758414 -0.927054 -0.367177 255 255 255 255 
0.0232725 -0.0768146 -0.390342 0.0441828 0.146977 0.988153 255 255 255 255 
-0.0168586 0.0523842 0.136939 -0.262164 -0.934128 -0.24223 255 255 255 255 
-0.0388817 -0.044036 -0.145267 0.541287 -0.661915 -0.518533 255 255 255 255 
-0.101368 0.0718674 0.201003 0.100113 -0.983062 -0.153515 255 255 255 255 
-0.0811165 -0.0759641 -0.0915419 0.12343 0.97914 -0.161401 255 255 255 255 
0.0573908 -0.0546151 -0.39105 0.0140648 0.0996934 0.994919 255 255 255 255 
0.149342 -0.0548923 0.336564 0.488922 -0.531577 0.691651 255 255 255 255 
-0.0537478 -0.05726 0.0438905 -0.434258 -0.89671 0.0856242 255 255 255 255 
-0.131897 -0.10207 -0.281598 0.387772 0.912071 -0.133264 255 255 255 255 
0.0786638 0.0256595 0.171448 -0.221582 -0.971602 -0.0830138 255 255 255 255 
-0.159184 -0.109008 -0.357038 0.434454 0.883028 0.177514 255 255 255 255 
-0.0157971 0.158061 -0.335218 -0.227236 -0.96679 -0.116965 255 255 255 255 
0.0625923 -0.0409258 -0.391369 0.00677989 0.0706249 0.99748 255 255 255 255 
-0.100749 -0.0921822 -0.248759 0.254767 -0.776068 0.576898 255 255 255 255 
-0.136683 -0.108006 -0.326229 0.359956 0.932661 -0.0239738 255 255 255 255 
-0.0119878 0.0198872 -0.391206 -0.0161433 -0.0535008 0.998437 255 255 255 255 
0.0447212 -0.0186061 -0.12429 -0.0721092 0.150555 0.985968 255 255 255 255 
-0.0600008 0.0794677 0.10125 0.0494118 -0.983296 -0.17518 255 255 255 255 
-0.0273879 -0.0380475 -0.144007 0.43049 -0.730592 -0.530013 255 255 255 255 
-0.0816342 -0.0588445 0.236496 -0.0941085 -0.979423 0.178533 255 255 255 255 
0.0766401 -0.0802527 -0.282959 -0.327216 -0.194394 0.924738 255 255 255 255 
-0.163786 0.163721 -0.344668 0.811574 -0.510418 0.28429 255 255 255 255 
0.0227761 -0.127425 -0.303785 0.0789272 -0.527809 0.845688 255 255 255 255 
0.0400531 -0.0379344 -0.119386 -0.0293418 0.176503 0.983863 255 255 255 255 
0.0237395 0.0715308 0.0901385 -0.217142 -0.896206 -0.386863 255 255 255 255 
0.0307396 0.0776008 0.083313 -0.224524 -0.890694 -0.395288 255 255 255 255 
-0.0518047 0.124876 -0.121018 -0.326495 -0.931934 -0.157796 255 255 255 255 
0.172956 -0.0120401 0.173691 0.554069 -0.82762 -0.0897347 255 255 255 255 
0.186689 0.0783168 -0.390041 -0.245387 -0.176067 0.953303 255 255 255 255 
-0.0478068 -0.0596576 0.066872 -0.397249 -0.908791 0.127637 255 255 255 255 
-0.0921917 0.0730232 0.17842 0.0444418 -0.993078 -0.108723 255 255 255 255 
-0.0116454 -0.0319807 -0.125899 0.794029 -0.223507 -0.565299 255 255 255 255 
0.139509 0.0398474 -0.157913 0.0626217 -0.992171 -0.108056 255 255 255 255 
0.17869 0.0605828 -0.392075 -0.219082 -0.13289 0.966615 255 255 255 255 
-0.101185 -0.0499857 0.243659 -0.220588 -0.94524 0.240547 255 255 255 255 
-0.129878 -0.0276481 0.0983109 -0.470141 -0.879369 -0.075356 255 255 255 255 
-0.0860284 -0.0384154 0.0621449 -0.428231 -0.902352 0.048768 255 255 255 255 
-0.081685 0.110343 -0.391035 0.0180937 -0.209838 0.977569 255 255 255 255 
-0.0674237 -0.0100463 0.308835 -0.237002 -0.593132 0.769432 255 255 255 255 
0.0302744 0.105833 -0.00682626 -0.135281 -0.986738 0.089705 255 255 255 255 
0.0565283 0.0287755 -0.39019 -0.0332248 -0.0797479 0.996261 255 255 255 255 
0.0782742 0.121525 -0.309524 -0.262683 -0.912451 -0.313737 255 255 255 255 
-0.0868816 0.0925584 -0.225408 -0.239663 -0.617193 -0.749423 255 255 255 255 
0.2153 0.105259 -0.345451 -0.402845 -0.901283 -0.159391 255 255 255 255 
0.0556208 -0.0156466 -0.39045 -0.00837191 0.0134733 0.999874 255 255 255 255 
0.00665916 -0.145188 -0.337947 0.272511 0.899794 0.340748 255 255 255 255 
0.205962 -0.0212158 -0.0825034 -0.902497 -0.0509748 0.427669 255 255 255 255 
0.00740869 -0.144025 -0.323382 -0.0295539 -0.841827 0.538938 255 255 255 255 
-0.127535 0.0720217 0.0516408 0.300129 -0.952731 -0.047177 255 255 255 255 
0.103793 -0.00591748 -0.267929 0.914124 -0.0976139 -0.393508 255 255 255 255 
-0.18157 -0.0969977 -0.379163 0.392281 0.536149 0.747435 255 255 255 255 
-0.0723749 -0.0814872 -0.103558 0.112935 0.980888 -0.158443 255 255 255 255 
0.200469 0.00208525 0.295173 -0.736679 -0.640163 -0.217933 255 255 255 255 
-0.115566 -0.110995 -0.337868 0.279422 0.958267 0.0603999 255 255 255 255 
0.0184945 0.10997 0.00352077 -0.100123 -0.99462 0.0265763 255 255 255 255 
-0.0242081 0.146482 -0.295767 -0.240061 -0.896691 -0.371909 255 255 255 255 
-0.116333 0.127274 -0.188755 0.205812 -0.955171 -0.212813 255 255 255 255 
-0.0032106 0.15431 -0.335614 -0.268481 -0.958665 -0.094235 255 255 255 255 
-0.0178935 -0.0154516 -0.267909 0.285572 -0.16223 0.944526 255 255 255 255 
-0.205604 0.0314382 -0.30633 0.975809 -0.0498551 0.212866 255 255 255 255 
0.148223 -0.0883908 0.0598569 0.344839 -0.847649 0.403208 255 255 255 255 
0.207756 -0.13011 -0.334673 -0.950724 0.307277 0.0412969 255 255 255 255 
0.0898103 -0.0587407 0.308377 -0.317048 -0.875623 0.36437 255 255 255 255 
-0.043535 -0.0114094 -0.167095 0.851167 -0.163426 -0.498805 255 255 255 255 
0.120828 0.065047 -0.39602 -0.0946481 -0.246353 0.964547 255 255 255 255 
0.15089 -0.10109 -0.393815 -0.146208 0.07798 0.986176 255 255 255 255 
0.128758 0.104399 -0.300377 -0.0963655 -0.861724 -0.498142 255 255 255 255 
0.145358 0.104564 -0.386338 -0.130837 -0.402946 0.905823 255 255 255 255 
-0.211214 0.0596331 -0.24058 0.927809 -0.366928 -0.067331 255 255 255 255 
0.0619369 -0.0306423 -0.391264 0.000800882 0.0477847 0.998857 255 255 255 255 
0.0867622 0.122946 -0.320871 -0.230661 -0.944444 -0.234137 255 255 255 255 
0.0104894 0.146871 -0.365673 -0.298727 -0.944379 0.137515 255 255 255 255 
