ply
format ascii 1.0
comment VCGLIB generated
element vertex 633
property float x
property float y
property float z
property float nx
property float ny
property float nz
property uchar red
property uchar green
property uchar blue
property uchar alpha
element face 0
property list uchar int vertex_indices
end_header
-0.0819493 -0.00228979 0.145206 -0.827687 -0.354029 0.435428 255 255 255 255 
-0.107924 0.00974269 -0.220013 -0.398906 0.863572 0.308411 255 255 255 255 
-0.0520194 -0.289866 0.247185 -0.195184 -0.931518 0.306885 255 255 255 255 
0.0953559 0.0244039 -0.229859 0.36395 0.78226 0.505579 255 255 255 255 
-0.114956 0.154569 0.0953878 -0.923934 0.345646 0.163936 255 255 255 255 
-0.0965368 -0.0333935 -0.0528511 -0.233976 0.970288 0.0616197 255 255 255 255 
0.189411 -0.0802241 -0.205947 0.832323 0.1525 -0.532899 255 255 255 255 
0.0298177 0.174831 0.261149 -0.0145735 -0.323112 0.946249 255 255 255 255 
-0.226698 -0.236281 0.0402181 -0.638446 -0.769036 -0.0311528 255 255 255 255 
0.101625 0.0137441 -0.277225 0.664525 0.741729 -0.0907956 255 255 255 255 
-0.0380297 -0.0220961 0.188078 -0.204338 0.765738 0.609829 255 255 255 255 
-0.259099 -0.107024 0.0229304 -0.874636 0.476405 0.0897189 255 255 255 255 
-0.093508 0.0516631 0.177648 -0.745528 -0.389817 0.540584 255 255 255 255 
-0.101305 0.130575 0.15719 -0.817455 0.340617 0.464485 255 255 255 255 
0.154046 -0.184355 0.237173 0.698196 -0.0214215 0.715586 255 255 255 255 
0.16785 -0.182532 -0.212776 0.641443 -0.46578 -0.60959 255 255 255 255 
-0.051213 0.268467 0.0854017 -0.454402 0.776742 0.436108 255 255 255 255 
0.0921543 -0.0334014 -0.127751 0.225055 0.951316 0.21059 255 255 255 255 
0.131268 -0.29357 0.196166 -0.122464 -0.944528 -0.304746 255 255 255 255 
0.0635669 0.279802 0.030556 0.668638 0.731696 -0.132455 255 255 255 255 
0.0353939 0.246293 0.14292 0.121592 0.762998 0.634861 255 255 255 255 
0.12818 -0.0158926 -0.267312 0.522891 0.162247 -0.836816 255 255 255 255 
0.06149 -0.0261252 -0.124712 0.195796 0.971317 0.134935 255 255 255 255 
-0.0599842 0.271203 0.0690218 -0.559488 0.753295 0.345717 255 255 255 255 
0.208935 -0.213178 -0.139867 0.824363 -0.33725 -0.454631 255 255 255 255 
0.0474367 -0.0229334 -0.126946 0.166567 0.978461 0.121943 255 255 255 255 
0.142893 -0.0238289 -0.254088 0.623998 0.160374 -0.764792 255 255 255 255 
0.104165 -0.0366746 -0.110577 0.243159 0.961801 0.125751 255 255 255 255 
0.0232444 0.227234 0.15871 0.193376 0.718341 0.668275 255 255 255 255 
0.109295 -0.00285754 -0.202712 0.29327 0.81811 0.49466 255 255 255 255 
-0.032336 0.00630345 0.17963 -0.240308 -0.605787 0.758469 255 255 255 255 
0.225777 -0.203553 -0.115245 0.857307 -0.350239 -0.377302 255 255 255 255 
-0.0661679 0.0283941 0.182233 -0.451942 -0.576925 0.680372 255 255 255 255 
0.0510261 -0.0230966 -0.114039 0.171511 0.983248 0.0616983 255 255 255 255 
-0.107958 0.0291136 0.132555 -0.865048 -0.298658 0.403106 255 255 255 255 
-0.116451 0.03995 0.128381 -0.891881 -0.252312 0.375348 255 255 255 255 
-0.116599 0.0153473 0.0842182 -0.966491 -0.233236 0.107223 255 255 255 255 
0.13646 0.0267478 0.0466807 0.880688 -0.448022 -0.153831 255 255 255 255 
-0.127078 0.0388743 0.0977159 -0.953287 -0.228878 0.197124 255 255 255 255 
0.119495 -0.29718 0.212215 -0.111348 -0.948629 -0.296151 255 255 255 255 
-0.0508897 0.279388 0.0586537 -0.451635 0.820265 0.350985 255 255 255 255 
0.178334 -0.0724134 -0.221412 0.794866 0.131542 -0.592355 255 255 255 255 
0.0568981 0.139467 0.228844 0.0691724 0.448765 0.890969 255 255 255 255 
-0.249869 -0.0932521 -0.00863187 -0.863752 0.503655 -0.0162431 255 255 255 255 
0.14114 -0.279154 0.211658 0.629267 -0.490319 0.603001 255 255 255 255 
0.141019 -0.153404 0.247065 0.66837 0.149423 0.728666 255 255 255 255 
0.0611402 -0.0253834 -0.112804 0.193452 0.978713 0.0685309 255 255 255 255 
0.0391723 -0.0205327 -0.112511 0.142661 0.988793 0.0440113 255 255 255 255 
-0.0692455 0.26598 0.0543702 -0.801963 0.592919 0.0728157 255 255 255 255 
0.144266 -0.0201076 -0.236464 0.685909 0.715012 -0.135224 255 255 255 255 
0.0577371 0.219687 0.150855 0.459049 0.649147 0.606533 255 255 255 255 
0.0331655 -0.0188554 -0.149543 0.136127 0.934033 0.330231 255 255 255 255 
-0.121021 0.0278997 0.0999478 -0.940829 -0.247757 0.231208 255 255 255 255 
-0.112583 0.0102188 0.0727537 -0.972095 -0.211599 -0.10128 255 255 255 255 
-0.0340662 -0.0117312 -0.153911 -0.122149 0.918011 0.377274 255 255 255 255 
-0.0261873 0.280207 0.0802286 -0.328412 0.850556 0.410732 255 255 255 255 
0.178742 -0.0490192 -0.206296 0.8225 0.369849 -0.432094 255 255 255 255 
0.116857 -0.140262 0.261355 0.594855 0.253886 0.762686 255 255 255 255 
0.0478155 -0.0229056 -0.138378 0.168928 0.960465 0.221291 255 255 255 255 
-0.039308 0.284778 0.0568689 -0.404663 0.847117 0.344443 255 255 255 255 
-0.0394565 -0.0179744 -0.121251 -0.0837196 0.993845 0.0725449 255 255 255 255 
-0.0468124 0.27248 0.0815355 -0.434387 0.798743 0.416314 255 255 255 255 
0.141866 -0.171804 0.248026 0.66653 0.0389221 0.744461 255 255 255 255 
0.0271666 -0.0186857 -0.112307 0.109456 0.993355 0.0355629 255 255 255 255 
0.139396 -0.011568 -0.210627 0.29811 0.867012 0.399275 255 255 255 255 
0.161603 -0.141181 0.219199 0.721849 0.326529 0.610174 255 255 255 255 
-0.0750528 0.255225 0.035285 -0.835033 0.542323 -0.0927688 255 255 255 255 
0.133661 -0.0109104 -0.239292 0.676487 0.726851 -0.118547 255 255 255 255 
0.0131229 -0.0168242 -0.145446 0.0832978 0.979345 0.184242 255 255 255 255 
0.178938 -0.0636119 -0.218014 0.803236 0.176334 -0.568963 255 255 255 255 
0.118882 -0.10745 0.239373 0.552558 0.571481 0.606704 255 255 255 255 
0.0203599 -0.0180612 -0.114454 0.0913462 0.995142 0.0367175 255 255 255 255 
0.125859 -0.12459 0.24806 0.597476 0.455416 0.660015 255 255 255 255 
0.112709 -0.129822 0.260175 0.57434 0.369665 0.730398 255 255 255 255 
0.131566 -0.115496 0.235998 0.607165 0.510605 0.608797 255 255 255 255 
0.130085 -0.139509 0.252546 0.631303 0.274938 0.725166 255 255 255 255 
0.114962 -0.112473 0.247216 0.552742 0.528467 0.644359 255 255 255 255 
0.103275 -0.10035 0.244181 0.497419 0.595518 0.630819 255 255 255 255 
0.108456 -0.108484 0.248481 0.528469 0.546953 0.649278 255 255 255 255 
0.0984143 -0.121565 0.265292 0.528878 0.429632 0.731918 255 255 255 255 
0.107566 -0.141722 0.268082 0.571484 0.262092 0.777634 255 255 255 255 
0.131705 -0.1301 0.247154 0.624549 0.380719 0.681903 255 255 255 255 
0.137299 -0.123645 0.237422 0.633138 0.445478 0.632997 255 255 255 255 
0.258421 -0.1258 -0.0620401 0.961497 0.226933 -0.154997 255 255 255 255 
-0.0986018 -0.00373511 0.111208 -0.916642 -0.254645 0.308096 255 255 255 255 
0.034027 0.182002 0.263704 -0.00863653 -0.317172 0.948329 255 255 255 255 
0.0849005 0.221345 0.130785 0.632986 0.598715 0.490784 255 255 255 255 
0.0544302 -0.0247008 -0.125875 0.178781 0.974087 0.138536 255 255 255 255 
-0.130906 0.0495394 0.0991648 -0.962737 -0.196802 0.18549 255 255 255 255 
-0.0383508 -0.00809763 -0.161183 -0.138947 0.887195 0.439976 255 255 255 255 
0.0305553 0.302266 0.0443557 0.372657 0.916181 0.147445 255 255 255 255 
-0.0257221 -0.0158486 -0.140661 -0.0679385 0.981011 0.181665 255 255 255 255 
0.14185 -0.00679384 -0.223505 0.3397 0.858369 0.384455 255 255 255 255 
0.150451 -0.0203414 -0.215836 0.691935 0.708164 -0.140462 255 255 255 255 
0.0466726 -0.0192841 -0.153656 0.160754 0.916084 0.367354 255 255 255 255 
0.0230392 -0.0189749 -0.133466 0.110264 0.986033 0.124825 255 255 255 255 
0.0114568 0.303336 0.0479101 -0.147284 0.935127 0.322251 255 255 255 255 
0.0100535 -0.0177397 -0.133788 0.072232 0.990979 0.112889 255 255 255 255 
0.165374 -0.0300399 -0.225174 0.77309 0.227132 -0.592236 255 255 255 255 
0.0270574 -0.0185473 -0.145216 0.122006 0.966913 0.224042 255 255 255 255 
-0.00369771 0.296321 0.0580741 -0.248965 0.905115 0.344649 255 255 255 255 
-0.01031 -0.0132561 -0.151053 -0.0296927 0.918356 0.39464 255 255 255 255 
0.161808 -0.0294747 -0.186227 0.215055 0.9319 0.292086 255 255 255 255 
-0.0197922 -0.00881671 -0.159467 -0.0703392 0.889436 0.451614 255 255 255 255 
-0.0238645 0.00218794 -0.17509 -0.0853298 0.819624 0.566512 255 255 255 255 
-0.00756691 0.00430475 -0.178042 -0.0208769 0.795123 0.606089 255 255 255 255 
0.011291 -0.0044547 -0.170824 0.0553068 0.828421 0.557369 255 255 255 255 
-0.021773 -0.0144214 -0.147012 -0.0697912 0.943415 0.324186 255 255 255 255 
-0.00555392 -0.00645325 -0.164421 -0.0139511 0.852548 0.522462 255 255 255 255 
-0.0263471 -0.0117725 -0.154128 -0.0879613 0.922871 0.374928 255 255 255 255 
-0.0430932 0.00835398 -0.183962 -0.146016 0.8094 0.568816 255 255 255 255 
-0.00302281 -0.0134822 -0.15213 0.00119424 0.921958 0.387288 255 255 255 255 
0.020162 -0.014142 -0.157413 0.0906007 0.907617 0.409905 255 255 255 255 
0.172623 -0.0365449 -0.169839 0.199331 0.947057 0.251694 255 255 255 255 
0.0248368 -0.0020428 -0.17634 0.09425 0.806182 0.584112 255 255 255 255 
-0.014615 -0.00235204 -0.169518 -0.0485097 0.838822 0.54224 255 255 255 255 
0.012534 0.308933 0.0319795 -0.11369 0.947249 0.299656 255 255 255 255 
0.171393 -0.0382638 -0.215689 0.805988 0.364825 -0.46614 255 255 255 255 
0.170191 -0.0334349 -0.179356 0.204222 0.941798 0.26704 255 255 255 255 
0.017756 0.299688 0.00957412 0.0667854 0.650944 -0.756183 255 255 255 255 
0.153955 -0.0247639 -0.221168 0.708595 0.684434 -0.17159 255 255 255 255 
0.14874 -0.0273711 -0.182948 0.221184 0.922958 0.315002 255 255 255 255 
0.00560535 0.301843 0.00969299 0.00632708 0.653787 -0.756652 255 255 255 255 
0.157437 -0.0234492 -0.200281 0.24123 0.916198 0.319983 255 255 255 255 
0.143799 -0.0200322 -0.197709 0.250567 0.898467 0.360517 255 255 255 255 
0.130013 -0.0126677 -0.201676 0.277388 0.86486 0.418419 255 255 255 255 
0.147972 -0.017626 -0.206155 0.27779 0.893331 0.353261 255 255 255 255 
0.152371 -0.0241391 -0.194277 0.238573 0.913372 0.329901 255 255 255 255 
0.155105 -0.0202456 -0.206262 0.260101 0.904522 0.337917 255 255 255 255 
0.186564 -0.046743 -0.184097 0.828716 0.387944 -0.403398 255 255 255 255 
0.133789 -0.0168913 -0.196723 0.261161 0.881866 0.392564 255 255 255 255 
0.131785 -0.0192076 -0.190394 0.252627 0.88694 0.386674 255 255 255 255 
0.040468 -0.107663 -0.307112 0.150112 -0.135811 -0.979297 255 255 255 255 
0.0799614 0.00904759 -0.0207085 0.532247 -0.495995 -0.686077 255 255 255 255 
-0.0963978 -0.217871 -0.0176432 0.0410076 -0.974101 -0.222362 255 255 255 255 
0.169431 -0.238587 -0.0376373 -0.132129 -0.967662 -0.214878 255 255 255 255 
-0.077647 -0.264931 0.14634 -0.00753835 -0.966056 -0.258221 255 255 255 255 
0.0411105 0.108099 0.257098 -0.00155553 0.845587 0.533836 255 255 255 255 
0.218709 -0.110594 0.109349 0.722975 0.553038 0.414073 255 255 255 255 
-0.0430679 0.204291 -0.0476804 -0.440324 0.420646 -0.793203 255 255 255 255 
0.0709032 0.254231 -0.00407005 0.678162 0.597962 -0.427245 255 255 255 255 
0.0472982 -0.0168403 0.176802 0.302534 0.72005 0.624501 255 255 255 255 
0.0114417 0.0844459 0.288201 0.0800363 -0.812834 0.57697 255 255 255 255 
0.162591 -0.268736 0.0887771 -0.150399 -0.954033 -0.259234 255 255 255 255 
-0.200947 -0.171713 -0.173605 -0.795421 -0.310478 -0.52049 255 255 255 255 
0.118386 -0.212 -0.217455 -0.00642053 -0.98624 -0.165194 255 255 255 255 
0.0433618 -0.153281 -0.297146 0.16287 -0.307482 -0.937512 255 255 255 255 
-0.142191 -0.0528533 0.0699661 -0.426977 0.899469 0.0929885 255 255 255 255 
-0.141001 -0.192017 0.253567 -0.624018 -0.0182358 0.781197 255 255 255 255 
0.120934 -0.26836 0.115273 -0.143245 -0.953526 -0.265083 255 255 255 255 
0.0272608 0.122886 0.239737 -0.0213449 -0.345323 0.938241 255 255 255 255 
-0.0495475 -0.241641 0.0722165 -0.0146043 -0.959355 -0.281822 255 255 255 255 
-0.0352468 -0.108048 0.283682 -0.182124 0.531352 0.827343 255 255 255 255 
-0.0400518 0.00891907 -0.293379 -0.313395 0.367984 -0.875426 255 255 255 255 
-0.143882 -0.240138 0.237089 -0.620596 -0.433445 0.653441 255 255 255 255 
-0.138484 -0.0257485 -0.231926 -0.735617 0.466023 -0.491621 255 255 255 255 
-0.0781801 -0.0993692 -0.29361 -0.376922 -0.050896 -0.924846 255 255 255 255 
0.105113 0.100666 -0.0485258 0.675953 0.0098227 -0.736879 255 255 255 255 
0.0520341 -0.203957 -0.106172 -0.09711 -0.990321 -0.0991666 255 255 255 255 
-0.222118 -0.0811758 0.0689832 -0.602768 0.757518 0.250671 255 255 255 255 
-0.0458659 0.194884 -0.050479 -0.460069 0.387862 -0.798686 255 255 255 255 
-0.0719716 -0.23228 0.0403893 0.0137878 -0.963933 -0.265789 255 255 255 255 
-0.180471 -0.263539 0.131846 -0.00744587 -0.975385 -0.220383 255 255 255 255 
-0.0203292 -0.206709 -0.0673252 -0.0235782 -0.986115 -0.16438 255 255 255 255 
-0.0936231 -0.211694 -0.0439743 0.042554 -0.979244 -0.198168 255 255 255 255 
0.17462 -0.156784 0.210059 0.758401 0.227774 0.610694 255 255 255 255 
0.220728 -0.146542 0.135875 0.82381 0.250696 0.508418 255 255 255 255 
0.225322 -0.23224 0.114417 0.831274 -0.485141 0.271331 255 255 255 255 
-0.129561 0.114943 0.0350407 -0.962338 0.203644 -0.180094 255 255 255 255 
0.243707 -0.193453 -0.0792538 0.873076 -0.402465 -0.275244 255 255 255 255 
0.203739 -0.163555 -0.179972 0.815145 -0.243774 -0.525464 255 255 255 255 
0.0635114 -0.0869874 -0.30497 0.258882 -0.0628526 -0.963862 255 255 255 255 
0.155342 -0.0443506 -0.124608 0.214912 0.957503 0.192357 255 255 255 255 
-0.245199 -0.0943802 0.0492472 -0.774461 0.598482 0.205013 255 255 255 255 
-0.230023 -0.0901306 -0.109028 -0.887714 0.330507 -0.320515 255 255 255 255 
0.0171771 0.0667658 0.260922 0.109077 -0.80321 0.585624 255 255 255 255 
-0.181628 -0.162017 0.211086 -0.720607 0.203263 0.66288 255 255 255 255 
-0.117901 -0.252363 0.100561 0.0373448 -0.964231 -0.26242 255 255 255 255 
-0.122702 -0.165764 0.263433 -0.570763 0.162932 0.804788 255 255 255 255 
-0.207308 -0.200334 -0.133941 -0.726053 -0.54858 -0.414617 255 255 255 255 
-0.214641 -0.176201 -0.147765 -0.826787 -0.314673 -0.466267 255 255 255 255 
-0.116465 0.156177 0.0586687 -0.93817 0.344962 -0.0289405 255 255 255 255 
0.125275 -0.221795 -0.0606219 -0.173919 -0.968513 -0.178141 255 255 255 255 
0.0569425 0.0445471 -0.059541 0.312059 -0.42854 -0.847923 255 255 255 255 
-0.0489726 0.049049 -0.0563303 -0.38332 -0.462569 -0.799435 255 255 255 255 
-0.204889 -0.0558831 -0.0404438 -0.331144 0.939749 0.0849497 255 255 255 255 
0.0891138 -0.0295508 -0.0448635 0.293235 0.956038 0.00196747 255 255 255 255 
-0.107023 0.0766415 -0.0221436 -0.788711 -0.218387 -0.574667 255 255 255 255 
-0.0767342 -0.0862292 -0.294542 -0.378884 -0.00324081 -0.925438 255 255 255 255 
0.0303791 -0.23578 0.0380934 -0.113209 -0.942062 -0.315759 255 255 255 255 
-0.0688916 -0.24373 0.0801261 0.00453861 -0.961267 -0.275583 255 255 255 255 
-0.216203 -0.123638 -0.15081 -0.882776 0.08353 -0.462309 255 255 255 255 
-0.00121721 0.274232 -0.0128816 -0.0609417 0.64184 -0.764413 255 255 255 255 
0.129508 0.106905 0.152096 0.87427 0.196233 0.44401 255 255 255 255 
-0.192274 -0.113052 0.165325 -0.67982 0.530862 0.505994 255 255 255 255 
0.0748642 0.0342958 0.188205 0.497091 -0.568738 0.655315 255 255 255 255 
0.218407 -0.0756964 -0.0314795 0.552146 0.831147 0.0657922 255 255 255 255 
-0.262185 -0.173127 -0.00334731 -0.975467 -0.212032 -0.0592142 255 255 255 255 
-0.0776121 0.225604 0.107288 -0.76024 0.527762 0.378816 255 255 255 255 
0.13328 0.0233556 0.0888217 0.871294 -0.47709 0.115033 255 255 255 255 
0.242823 -0.0960752 -0.022647 0.765611 0.642452 0.0330988 255 255 255 255 
-0.0518209 -0.00368121 0.166618 -0.409571 -0.0507637 0.910865 255 255 255 255 
-0.0328939 -0.0180998 -0.0570362 -0.0832004 0.99644 0.0136002 255 255 255 255 
0.14089 0.108836 0.00972245 0.926262 0.132406 -0.352857 255 255 255 255 
-0.123959 0.0333773 0.0523793 -0.921956 -0.296057 -0.249695 255 255 255 255 
0.0539851 -0.207571 -0.225098 -0.0610216 -0.997415 -0.0379429 255 255 255 255 
0.139633 -0.0535477 0.023199 0.45804 0.888087 0.0387276 255 255 255 255 
0.0307363 0.201147 0.270237 0.00490606 -0.298099 0.954522 255 255 255 255 
0.0286219 -0.169414 -0.293463 0.0969258 -0.374014 -0.922344 255 255 255 255 
-0.255714 -0.11976 -0.0559926 -0.941018 0.285466 -0.181645 255 255 255 255 
0.221587 -0.247581 0.0101151 0.725894 -0.683891 -0.0732876 255 255 255 255 
-0.238972 -0.0934023 0.0630575 -0.733019 0.633296 0.248233 255 255 255 255 
-0.262524 -0.171874 0.0403585 -0.971781 -0.207371 0.112427 255 255 255 255 
-0.0927544 -0.00914196 0.0396098 -0.889242 -0.246419 -0.38539 255 255 255 255 
-0.0340852 0.0546947 0.227968 -0.322971 -0.72234 0.611485 255 255 255 255 
-0.0907137 0.022302 -0.246485 -0.639369 0.711466 -0.291587 255 255 255 255 
0.261462 -0.190058 0.0378679 0.967367 -0.233539 0.0982919 255 255 255 255 
0.148724 -0.26777 0.0938552 -0.15289 -0.953249 -0.260655 255 255 255 255 
0.0638061 -0.0731951 0.238405 0.30248 0.696083 0.651133 255 255 255 255 
-0.0788636 -0.285489 0.229046 -0.143618 -0.989397 -0.0216331 255 255 255 255 
-0.0852396 0.155854 0.154655 -0.749442 0.44354 0.491537 255 255 255 255 
-0.159945 -0.0422833 -0.0923092 -0.20029 0.96909 0.144043 255 255 255 255 
0.0102555 0.00654749 -0.0416468 0.0445501 -0.455616 -0.889061 255 255 255 255 
-0.203239 -0.139079 0.174683 -0.739911 0.373464 0.559514 255 255 255 255 
0.042945 -0.221584 -0.0081209 -0.151792 -0.949188 -0.275682 255 255 255 255 
-0.209754 -0.235488 0.132681 -0.804294 -0.512882 0.300105 255 255 255 255 
-0.0846577 -0.20052 -0.170361 0.0785986 -0.996851 0.0105041 255 255 255 255 
-0.13867 -0.206718 -0.201439 0.0333716 -0.997063 -0.0689322 255 255 255 255 
0.116812 0.0200392 0.130125 0.797922 -0.476091 0.369673 255 255 255 255 
-0.114429 -0.098058 -0.275524 -0.53529 -0.0115284 -0.84459 255 255 255 255 
-0.0552938 -0.17865 -0.280133 -0.247896 -0.442824 -0.861658 255 255 255 255 
-0.024515 -0.0803899 0.259604 -0.11537 0.68255 0.721675 255 255 255 255 
0.163327 -0.0689625 0.0877821 0.556749 0.810913 0.180144 255 255 255 255 
-0.0755017 0.0758242 0.219601 -0.586316 -0.592068 0.552891 255 255 255 255 
-0.190078 -0.0485634 -0.0773069 -0.30066 0.948767 0.0971868 255 255 255 255 
0.0586119 0.139262 0.246468 -0.0133331 -0.340266 0.940235 255 255 255 255 
-0.0144766 0.0709328 -0.0791427 -0.122992 -0.299354 -0.946182 255 255 255 255 
-0.110568 -0.0227894 -0.14631 -0.222193 0.948645 0.225173 255 255 255 255 
-0.188618 -0.189936 -0.17707 -0.730757 -0.441221 -0.520883 255 255 255 255 
-0.224466 -0.210547 0.124323 -0.866018 -0.370896 0.335336 255 255 255 255 
0.156767 -0.0333848 -0.170148 0.207355 0.9374 0.279794 255 255 255 255 
-0.0828069 0.184046 -0.023248 -0.736881 0.355541 -0.574976 255 255 255 255 
-0.146986 -0.0283486 -0.148906 -0.29418 0.942122 0.160824 255 255 255 255 
-0.0881532 0.0738497 0.200527 -0.681194 -0.497196 0.537375 255 255 255 255 
0.0916975 -0.0174651 0.123574 0.662332 0.66519 0.344729 255 255 255 255 
0.00204755 -0.290593 0.227243 -0.0679877 -0.97322 -0.21959 255 255 255 255 
0.0338016 -0.00201393 -0.302516 0.109907 0.23675 -0.965334 255 255 255 255 
-0.200521 -0.115385 -0.177996 -0.864365 0.108796 -0.490955 255 255 255 255 
-0.135063 0.072105 0.0374186 -0.96178 -0.131807 -0.240014 255 255 255 255 
0.0125156 0.0315688 -0.2045 0.0548704 0.713642 0.698359 255 255 255 255 
-0.00658822 -0.202235 -0.224798 -0.0385836 -0.9992 0.0105682 255 255 255 255 
-0.0454729 -0.0479592 -0.304267 -0.270432 0.108151 -0.956645 255 255 255 255 
-0.197444 -0.104921 -0.179387 -0.86118 0.16352 -0.48128 255 255 255 255 
-0.232253 -0.0711711 -0.00315515 -0.625455 0.776547 0.0760325 255 255 255 255 
-0.0246581 -0.197434 -0.179631 -0.00164711 -0.999568 0.0293634 255 255 255 255 
-0.0643699 -0.205994 0.298379 -0.287742 -0.17945 0.940746 255 255 255 255 
0.191225 -0.246513 -0.0157805 -0.107865 -0.968594 -0.224031 255 255 255 255 
-0.0250709 0.270835 -0.011002 -0.287039 0.620239 -0.730009 255 255 255 255 
0.000218676 0.030562 -0.294805 -0.092985 0.375515 -0.92214 255 255 255 255 
-0.0471003 0.132893 -0.0724135 -0.433039 0.172077 -0.884798 255 255 255 255 
0.00360445 -0.0907577 -0.31119 -0.0236271 -0.0687318 -0.997355 255 255 255 255 
-0.246649 -0.105818 0.0657472 -0.828485 0.491852 0.267758 255 255 255 255 
-0.107974 0.0926909 0.168493 -0.882331 0.062629 0.466443 255 255 255 255 
-0.113405 0.0978602 -0.0167623 -0.854947 0.016747 -0.518445 255 255 255 255 
0.113936 -0.201116 0.268834 0.583786 -0.092486 0.806623 255 255 255 255 
0.0789396 0.0437142 0.193549 0.540527 -0.557256 0.630314 255 255 255 255 
-0.124996 0.0418636 0.109439 -0.937728 -0.224551 0.265036 255 255 255 255 
0.0700399 -0.0237028 -0.0267581 0.280405 0.959084 -0.0391203 255 255 255 255 
0.0319949 -0.213894 -0.030689 -0.113261 -0.971125 -0.20997 255 255 255 255 
0.0537943 0.24363 -0.0301604 0.331753 0.564907 -0.755527 255 255 255 255 
-0.232457 -0.21194 -0.0600114 -0.659066 -0.711575 -0.243501 255 255 255 255 
-0.0513033 0.0197746 -0.196995 -0.179725 0.791507 0.584137 255 255 255 255 
0.041474 -0.205938 -0.217611 -0.068932 -0.997616 -0.00325026 255 255 255 255 
-0.0215105 0.0442843 -0.215137 -0.114093 0.754035 0.646849 255 255 255 255 
-0.102433 -0.0324788 -0.0785672 -0.20275 0.974075 0.100354 255 255 255 255 
-0.144126 -0.201616 0.250676 -0.635223 -0.0896398 0.767109 255 255 255 255 
-0.055136 0.00879296 -0.186336 -0.184947 0.816801 0.546471 255 255 255 255 
-0.264073 -0.142149 -0.0310057 -0.989837 0.0368056 -0.137362 255 255 255 255 
-0.0367682 0.12465 -0.0789488 -0.336742 0.11926 -0.934014 255 255 255 255 
-0.151684 -0.226383 -0.00501193 0.0739093 -0.972059 -0.222799 255 255 255 255 
-0.0137246 0.0401867 0.21628 -0.168882 -0.723941 0.668871 255 255 255 255 
0.20831 -0.260019 0.0374206 0.687356 -0.726092 -0.0182066 255 255 255 255 
0.00229675 0.212691 -0.0585104 -0.0665464 0.466998 -0.881751 255 255 255 255 
-0.0897632 0.177667 0.132141 -0.791901 0.435041 0.428523 255 255 255 255 
-0.0942768 0.166624 -0.0173286 -0.799136 0.31688 -0.510851 255 255 255 255 
-0.109005 -0.20732 0.275298 -0.515472 -0.129341 0.847089 255 255 255 255 
-0.0221927 0.0232466 -0.196197 -0.0797897 0.75231 0.65396 255 255 255 255 
-0.176563 -0.0371107 -0.152633 -0.365772 0.926072 0.0927442 255 255 255 255 
-0.00907489 -0.201404 -0.099306 -0.0269915 -0.990516 -0.13472 255 255 255 255 
-0.156135 -0.182337 0.240425 -0.667922 0.0508048 0.742495 255 255 255 255 
0.00233603 -0.270851 0.160355 -0.0558155 -0.969389 -0.239103 255 255 255 255 
-0.10285 -0.037697 -0.00424754 -0.322958 0.946399 0.00520203 255 255 255 255 
0.219362 -0.250334 0.0409155 0.71289 -0.701258 -0.00511796 255 255 255 255 
0.105688 -0.0270845 0.103865 0.678165 0.697969 0.230067 255 255 255 255 
0.110121 -0.0107312 0.0930532 0.863112 -0.490597 0.119797 255 255 255 255 
0.0666137 -0.0214546 -0.0133895 0.30613 0.949416 -0.0699603 255 255 255 255 
-0.218397 -0.236671 0.0990368 -0.807243 -0.545584 0.22516 255 255 255 255 
-0.0167051 0.284244 -0.00351464 -0.195367 0.641566 -0.741771 255 255 255 255 
0.243864 -0.222595 0.0644496 0.839304 -0.532038 0.11182 255 255 255 255 
0.217254 -0.0702201 -0.129791 0.796267 0.572644 -0.195034 255 255 255 255 
-0.0236701 -0.0166669 -0.0680758 -0.046529 0.998791 0.0158751 255 255 255 255 
-0.0483676 0.174557 0.232997 -0.63315 0.750291 -0.190223 255 255 255 255 
-0.0225958 -0.0520164 -0.308768 -0.158728 0.0769417 -0.98432 255 255 255 255 
-0.0151041 -0.210404 -0.0358151 -0.045054 -0.97838 -0.201848 255 255 255 255 
-0.147263 -0.0400285 -0.0964172 -0.192372 0.969805 0.149906 255 255 255 255 
-0.139 0.0895789 0.0700837 -0.999035 0.0434466 -0.00636243 255 255 255 255 
-0.00267606 0.0560031 -0.224691 -0.05513 0.739522 0.670871 255 255 255 255 
0.0703841 0.146464 0.249311 -0.0138238 -0.337162 0.941345 255 255 255 255 
0.144138 -0.0562108 0.0496067 0.507112 0.859201 0.067904 255 255 255 255 
-0.240086 -0.154952 0.12189 -0.892595 0.115821 0.43573 255 255 255 255 
0.162407 -0.28212 0.139844 -0.152351 -0.951958 -0.265643 255 255 255 255 
-0.0571026 -0.201981 -0.220708 0.00349197 -0.999737 -0.0226687 255 255 255 255 
0.0831623 -0.213961 0.287871 0.473302 -0.191482 0.859837 255 255 255 255 
-0.162069 -0.250204 0.0801287 0.0416056 -0.968289 -0.246346 255 255 255 255 
-0.0471319 -0.208389 0.301905 -0.201162 -0.202831 0.958328 255 255 255 255 
-0.149733 -0.128565 -0.248648 -0.648023 -0.133589 -0.749813 255 255 255 255 
-0.0293086 0.19546 0.268234 -0.168852 -0.274575 0.946624 255 255 255 255 
-0.110152 -0.240172 0.264731 -0.505647 -0.370442 0.779162 255 255 255 255 
0.021498 0.285957 -0.00171534 0.0703928 0.648948 -0.757569 255 255 255 255 
0.0182575 0.039906 -0.211768 0.0684587 0.713314 0.697493 255 255 255 255 
-0.0686188 0.159143 0.171411 -0.700448 0.502746 0.506575 255 255 255 255 
-0.047666 0.113891 0.245788 -0.0930946 0.875016 0.475058 255 255 255 255 
0.0516011 0.178437 0.204481 0.520729 0.800993 -0.295383 255 255 255 255 
-0.12145 -0.225677 0.263131 -0.551603 -0.274917 0.787499 255 255 255 255 
-0.0523243 -0.276 0.17963 -0.0487373 -0.975014 -0.21673 255 255 255 255 
0.00310332 -0.0705093 0.250306 0.0128677 0.713144 0.7009 255 255 255 255 
-0.090345 0.0633195 0.189362 -0.711004 -0.442817 0.546248 255 255 255 255 
0.0588559 0.103143 0.256396 0.0232428 0.726706 0.686556 255 255 255 255 
-0.0935935 -0.235083 0.048364 0.0318723 -0.964887 -0.260725 255 255 255 255 
-0.109829 -0.114025 0.248409 -0.515981 0.491053 0.701876 255 255 255 255 
0.00541325 -0.0959353 0.277054 0.00764453 0.62576 0.779978 255 255 255 255 
-0.0233431 -0.249942 0.0953436 -0.0397638 -0.957653 -0.285166 255 255 255 255 
0.250132 -0.17196 -0.0845559 0.922232 -0.252459 -0.292834 255 255 255 255 
-0.0346078 -0.0953693 0.273161 -0.171708 0.614617 0.76991 255 255 255 255 
0.084846 0.216723 -0.0248916 0.668058 0.46575 -0.580324 255 255 255 255 
0.0884537 0.25662 0.07276 0.685275 0.715495 0.135886 255 255 255 255 
-0.0442868 -0.0200283 -0.0492074 -0.125029 0.992116 0.00861462 255 255 255 255 
-0.129401 0.118872 0.0420173 -0.964032 0.224543 -0.142204 255 255 255 255 
0.0780031 0.0582972 -0.0591647 0.438026 -0.327804 -0.837065 255 255 255 255 
-0.18745 -0.173516 -0.192578 -0.755913 -0.333443 -0.563393 255 255 255 255 
0.0289021 -0.205064 -0.236656 -0.0641181 -0.997861 -0.0127292 255 255 255 255 
-0.191972 -0.0659995 -0.165945 -0.844503 0.312399 -0.434996 255 255 255 255 
-0.0807534 0.18678 0.137784 -0.731986 0.470387 0.492882 255 255 255 255 
0.000358961 -0.201534 -0.273946 -0.0558129 -0.99772 -0.0379492 255 255 255 255 
0.210017 -0.130204 -0.176623 0.868144 -0.0232792 -0.495766 255 255 255 255 
0.110541 -0.0371882 -0.0800763 0.283174 0.957922 0.046882 255 255 255 255 
-0.140628 -0.114735 -0.257422 -0.623051 -0.0633098 -0.779615 255 255 255 255 
-0.0160033 -0.170262 -0.292904 -0.0980114 -0.394619 -0.913603 255 255 255 255 
-0.057353 -0.196211 -0.133123 0.0401542 -0.997644 -0.0556231 255 255 255 255 
-0.254879 -0.110316 -0.0413805 -0.927358 0.348934 -0.135104 255 255 255 255 
-0.0735709 -0.00905738 -0.286718 -0.476766 0.360492 -0.80171 255 255 255 255 
0.266293 -0.159516 0.0160484 0.997062 0.0516967 0.0565288 255 255 255 255 
0.041781 -0.0910092 0.267627 0.190081 0.651065 0.734836 255 255 255 255 
0.0618722 0.0809549 -0.0741207 0.377891 -0.168305 -0.910424 255 255 255 255 
0.134792 -0.0651287 0.14699 0.600144 0.726889 0.333856 255 255 255 255 
-0.139189 0.0777213 0.0609196 -0.996371 -0.0437131 -0.0730328 255 255 255 255 
-0.222459 -0.0630165 -0.0673299 -0.74539 0.65922 -0.0991137 255 255 255 255 
-0.00134552 0.255872 0.132454 -0.156408 0.7847 0.599819 255 255 255 255 
-0.0515865 -0.196705 -0.125765 0.0277629 -0.996583 -0.0777866 255 255 255 255 
0.149728 -0.0399861 -0.249439 0.679143 0.155477 -0.717351 255 255 255 255 
0.0529083 0.0004661 -0.0292344 0.361918 -0.479623 -0.79936 255 255 255 255 
-0.0649294 -0.0108282 0.0031608 -0.678487 -0.405625 -0.612473 255 255 255 255 
-0.0966364 -0.111014 -0.284986 -0.453351 -0.0849252 -0.887277 255 255 255 255 
-0.135551 -0.0625002 -0.254403 -0.665965 0.2012 -0.718338 255 255 255 255 
0.0180892 0.23028 -0.0478222 0.0609617 0.527359 -0.847452 255 255 255 255 
0.206456 -0.143292 -0.182308 0.849396 -0.10959 -0.516253 255 255 255 255 
0.116147 0.0359881 0.150051 0.766408 -0.445806 0.462467 255 255 255 255 
-0.166602 -0.0349832 -0.138409 -0.317872 0.940855 0.117258 255 255 255 255 
0.0940297 -0.070472 -0.294764 0.407268 0.0193646 -0.913104 255 255 255 255 
-0.106399 -0.0376679 0.0405238 -0.435576 0.900149 -0.00221131 255 255 255 255 
-0.0017639 0.282149 -0.0067203 -0.0613189 0.648031 -0.759142 255 255 255 255 
0.262183 -0.194061 0.0118938 0.952099 -0.305784 0.00174624 255 255 255 255 
0.0876989 -0.2433 0.0445298 -0.132692 -0.951919 -0.276121 255 255 255 255 
0.0401865 0.294091 0.0612277 0.440962 0.880357 0.174714 255 255 255 255 
-0.0183092 0.191061 0.208518 -0.47461 0.831687 -0.288171 255 255 255 255 
-0.0816955 -0.225134 0.0134928 0.0244792 -0.968486 -0.247864 255 255 255 255 
0.123483 0.0925468 -0.0272129 0.814452 0.017502 -0.579966 255 255 255 255 
-0.0409505 0.27091 -0.00184781 -0.485279 0.59082 -0.644543 255 255 255 255 
0.0509094 -0.283345 0.19151 -0.0806354 -0.959606 -0.269543 255 255 255 255 
0.107155 -0.0356477 -0.0575016 0.307535 0.951222 0.0244777 255 255 255 255 
-0.0306511 -0.28998 0.254932 -0.152726 -0.751185 0.642181 255 255 255 255 
0.10613 -0.296861 0.217098 -0.0999028 -0.954619 -0.280575 255 255 255 255 
0.192061 -0.267664 0.123507 0.740291 -0.625591 0.246182 255 255 255 255 
0.121193 -0.0408348 -0.0710357 0.304317 0.951189 0.0512922 255 255 255 255 
0.250851 -0.216943 0.0176314 0.860316 -0.509613 -0.012319 255 255 255 255 
-0.253664 -0.157773 0.0925118 -0.93734 0.05724 0.343683 255 255 255 255 
-0.0840822 -0.222613 0.286546 -0.39107 -0.272493 0.879097 255 255 255 255 
0.165725 -0.263076 0.0653614 -0.141744 -0.956114 -0.256425 255 255 255 255 
-0.135097 -0.142523 0.247118 -0.595304 0.323396 0.735546 255 255 255 255 
-0.16988 -0.166118 0.224191 -0.697028 0.168856 0.696878 255 255 255 255 
-0.123696 -0.0558432 -0.26282 -0.630335 0.205969 -0.748502 255 255 255 255 
-0.123546 -0.203054 -0.228203 -0.0207983 -0.993466 -0.112217 255 255 255 255 
0.0633474 0.201485 -0.0502025 0.421307 0.412484 -0.807686 255 255 255 255 
-0.10315 -0.28187 0.226917 -0.168935 -0.985608 -0.00609521 255 255 255 255 
-0.174501 -0.212812 -0.113898 0.137287 -0.988725 -0.0597857 255 255 255 255 
-0.114008 0.11955 -0.00973247 -0.875605 0.17026 -0.452026 255 255 255 255 
0.165373 -0.194569 -0.20409 0.629886 -0.502626 -0.592124 255 255 255 255 
-0.190823 -0.10575 -0.192879 -0.851692 0.152338 -0.501413 255 255 255 255 
0.0399784 0.12058 -0.0826579 0.251419 0.067954 -0.96549 255 255 255 255 
-0.0286301 0.0673706 -0.0755969 -0.200397 -0.341933 -0.918108 255 255 255 255 
0.0951435 -0.0316897 -0.040147 0.313092 0.949708 0.00520836 255 255 255 255 
0.0615401 0.128946 0.242957 -0.00791407 -0.344617 0.93871 255 255 255 255 
-0.0273575 -0.0164855 -0.0958096 -0.0427642 0.99897 0.015151 255 255 255 255 
0.0739555 -0.0478161 -0.301875 0.321565 0.0830006 -0.943243 255 255 255 255 
0.0586561 -0.0568629 0.221005 0.287424 0.719817 0.631863 255 255 255 255 
-0.0563838 0.165456 0.235331 -0.66707 0.729282 -0.1522 255 255 255 255 
0.0863643 0.251821 0.0918359 0.655143 0.702648 0.277622 255 255 255 255 
-0.0508822 0.259891 -0.00324136 -0.549858 0.567223 -0.613118 255 255 255 255 
-0.103881 -0.0181725 -0.158312 -0.232531 0.933606 0.272598 255 255 255 255 
-0.0179245 -0.0380597 0.21092 -0.0789447 0.759456 0.645751 255 255 255 255 
-0.0191928 -0.200682 -0.205932 -0.018387 -0.999424 0.028512 255 255 255 255 
-0.0323973 -0.0153678 -0.0207986 -0.533169 -0.415497 -0.736949 255 255 255 255 
0.00806911 -0.14078 0.300936 0.0354677 0.264819 0.963646 255 255 255 255 
0.0128414 0.0352465 -0.0608915 0.0395657 -0.470149 -0.8817 255 255 255 255 
0.0455565 -0.00491638 0.172732 0.336465 -0.583987 0.738749 255 255 255 255 
0.218045 -0.23118 -0.0691205 0.700762 -0.667771 -0.251027 255 255 255 255 
-0.0896114 -0.0223311 -0.281604 -0.541733 0.316533 -0.778673 255 255 255 255 
-0.057187 0.249442 0.108876 -0.550957 0.673954 0.49217 255 255 255 255 
-0.0234241 0.0608399 -0.234247 -0.194058 0.79726 0.571593 255 255 255 255 
0.209595 -0.0649392 -0.0891843 0.535331 0.843208 0.0492061 255 255 255 255 
-0.198345 -0.09033 -0.170225 -0.858362 0.231072 -0.458061 255 255 255 255 
-0.0652895 -0.200268 -0.261314 -0.00727834 -0.998488 -0.0544842 255 255 255 255 
0.0867596 -0.297837 0.230677 -0.0747801 -0.967426 -0.241857 255 255 255 255 
0.0029251 0.0756013 -0.0819284 -0.0412246 -0.252672 -0.966673 255 255 255 255 
0.035376 0.188795 0.209201 0.413951 0.840384 -0.349855 255 255 255 255 
0.0337497 0.288556 0.0849528 0.103141 0.914127 0.392089 255 255 255 255 
-0.168761 -0.0331406 -0.163428 -0.365763 0.924405 0.108136 255 255 255 255 
0.121581 -0.091842 -0.280889 0.529762 -0.0181903 -0.847952 255 255 255 255 
0.0585227 -0.218845 -0.0254886 -0.133026 -0.964128 -0.229698 255 255 255 255 
0.0678562 0.273354 0.0229856 0.692182 0.690211 -0.210931 255 255 255 255 
-0.0392201 -0.00268582 0.170999 -0.275616 -0.57256 0.772147 255 255 255 255 
-0.0742641 -0.0278712 -0.0390562 -0.232071 0.972646 0.010173 255 255 255 255 
-0.0625126 0.150526 -0.0572322 -0.554787 0.245365 -0.794989 255 255 255 255 
0.0450969 0.0552487 -0.280579 0.233714 0.683803 -0.691224 255 255 255 255 
0.0237207 -0.185541 -0.286453 0.0753988 -0.430465 -0.899452 255 255 255 255 
-0.171219 -0.0973189 0.173486 -0.611823 0.624098 0.485977 255 255 255 255 
0.00490054 -0.00583362 -0.305561 -0.0338384 0.234027 -0.971641 255 255 255 255 
0.105748 0.108437 0.21104 0.846926 -0.176784 0.501461 255 255 255 255 
-0.0674987 -0.074155 -0.298039 -0.350082 0.0306987 -0.936216 255 255 255 255 
0.103594 0.14946 -0.0388053 0.733087 0.230187 -0.639998 255 255 255 255 
0.199115 -0.145829 0.168313 0.791042 0.295533 0.535643 255 255 255 255 
-0.172855 -0.101667 -0.224583 -0.792191 0.120748 -0.598209 255 255 255 255 
0.0760454 0.251271 0.000335391 0.700264 0.590981 -0.400464 255 255 255 255 
-0.111403 0.165873 0.0310852 -0.917857 0.350982 -0.18534 255 255 255 255 
0.200029 -0.0881468 -0.188071 0.856792 0.167853 -0.487579 255 255 255 255 
-0.072978 -0.0240774 0.0206362 -0.385806 0.921189 -0.0506374 255 255 255 255 
-0.122886 -0.205806 -0.161374 0.116201 -0.993216 0.00446892 255 255 255 255 
-0.0200553 0.0691867 0.258965 -0.291957 -0.739125 0.607005 255 255 255 255 
-0.0862668 0.235396 0.0540176 -0.858226 0.51323 0.00659015 255 255 255 255 
0.155076 -0.166039 -0.238982 0.613189 -0.406782 -0.677147 255 255 255 255 
-0.0677979 -0.0208835 -0.294024 -0.414123 0.270551 -0.869082 255 255 255 255 
-0.105033 0.194749 0.0532078 -0.90838 0.416328 -0.0389451 255 255 255 255 
0.221217 -0.2106 0.144226 0.873313 -0.202994 0.442852 255 255 255 255 
-0.000182196 0.0397188 0.218862 -0.0893409 -0.733886 0.673371 255 255 255 255 
0.00114943 0.0806852 -0.251878 -0.0962829 0.762902 0.639304 255 255 255 255 
0.220414 -0.226714 0.134668 0.847629 -0.39539 0.353824 255 255 255 255 
-0.0175299 0.172875 0.261757 -0.11079 -0.310899 0.943964 255 255 255 255 
-0.120108 -0.279261 0.207352 -0.115097 -0.988219 -0.100878 255 255 255 255 
0.0616818 -0.256006 0.0989408 -0.0870165 -0.956362 -0.278926 255 255 255 255 
-0.0797292 0.242226 0.0756629 -0.816325 0.54532 0.190368 255 255 255 255 
0.231957 -0.0823186 -0.0674348 0.680728 0.732536 0.00019557 255 255 255 255 
0.035045 0.151418 0.251434 -0.0189961 -0.337473 0.941144 255 255 255 255 
-0.231876 -0.139614 -0.125371 -0.901643 -0.0139762 -0.432256 255 255 255 255 
0.146595 -0.21323 -0.203683 0.56614 -0.576756 -0.58893 255 255 255 255 
0.0866736 0.174929 -0.0460079 0.60988 0.309336 -0.729628 255 255 255 255 
-0.222944 -0.0767644 0.0530543 -0.583866 0.784621 0.208496 255 255 255 255 
0.127798 0.0246109 0.112329 0.838711 -0.474659 0.26695 255 255 255 255 
-0.129118 -0.213997 -0.0451871 0.0777857 -0.979318 -0.186778 255 255 255 255 
0.113777 -0.0337292 0.0862879 0.647748 0.74709 0.149262 255 255 255 255 
-0.112658 0.118986 0.150149 -0.863343 0.240131 0.443819 255 255 255 255 
0.055883 -0.20605 -0.263101 -0.0539823 -0.996477 -0.0641876 255 255 255 255 
-0.212414 -0.0558032 -0.0920094 -0.454958 0.8898 0.035618 255 255 255 255 
-0.0420213 -0.133515 0.295877 -0.186387 0.324661 0.927284 255 255 255 255 
0.0799854 0.251166 0.103343 0.621201 0.700207 0.35188 255 255 255 255 
0.0225014 0.268351 -0.016978 0.0653493 0.63479 -0.769917 255 255 255 255 
-0.171591 -0.210995 -0.174836 0.0981285 -0.994607 -0.0335814 255 255 255 255 
-0.0294893 -0.136387 -0.302233 -0.161346 -0.231602 -0.959337 255 255 255 255 
-0.0232983 0.262357 -0.018613 -0.299247 0.607878 -0.735483 255 255 255 255 
0.0696864 -0.200457 -0.265534 0.266659 -0.583341 -0.767207 255 255 255 255 
-0.134569 0.0524816 0.0644999 -0.967421 -0.223092 -0.119693 255 255 255 255 
-0.117627 -0.163929 -0.260216 -0.510821 -0.32588 -0.795528 255 255 255 255 
0.115177 -0.0468914 0.13919 0.617176 0.710039 0.339024 255 255 255 255 
0.145714 0.0725806 0.0128688 0.929408 -0.0879027 -0.358432 255 255 255 255 
-0.015778 -0.0167084 -0.0267787 -0.0678769 0.997684 -0.00432837 255 255 255 255 
-0.195602 -0.189688 0.199874 -0.787781 -0.0671606 0.612283 255 255 255 255 
-0.0966779 0.0909389 -0.039763 -0.753634 -0.0493982 -0.655435 255 255 255 255 
-0.135952 -0.0471483 -0.0158729 -0.264904 0.961635 0.0713014 255 255 255 255 
-0.00271821 0.260813 0.125785 -0.17568 0.799375 0.574574 255 255 255 255 
-0.24118 -0.0873187 0.0415979 -0.723226 0.666676 0.180243 255 255 255 255 
-0.0834146 -0.273148 0.171731 -0.0295865 -0.974444 -0.222673 255 255 255 255 
-0.0635566 0.0579977 0.211346 -0.501687 -0.631063 0.591667 255 255 255 255 
0.0399297 0.266013 0.122702 0.0931453 0.827631 0.55349 255 255 255 255 
0.242925 -0.102948 0.0438379 0.785235 0.59411 0.174468 255 255 255 255 
0.247369 -0.204638 0.0941014 0.915793 -0.285735 0.282274 255 255 255 255 
0.102114 0.238358 0.0860778 0.753192 0.627066 0.198722 255 255 255 255 
0.167926 -0.0998089 0.168586 0.663203 0.606123 0.439063 255 255 255 255 
0.236941 -0.0874738 -0.0843568 0.744504 0.665297 -0.0556207 255 255 255 255 
-0.103819 0.072715 0.173433 -0.871627 -0.11599 0.476248 255 255 255 255 
0.119992 0.0528147 0.159304 0.774198 -0.394198 0.495202 255 255 255 255 
0.0993769 -0.286459 0.186498 -0.111999 -0.947748 -0.298714 255 255 255 255 
0.127771 0.0461312 -0.00924282 0.78329 -0.349894 -0.51384 255 255 255 255 
-0.0298319 0.181842 0.202415 -0.566503 0.793223 -0.223319 255 255 255 255 
-0.00489985 0.0137013 -0.0469308 -0.0980509 -0.473421 -0.875362 255 255 255 255 
0.166397 -0.278959 0.125065 -0.154245 -0.952511 -0.262548 255 255 255 255 
-0.266293 -0.139133 -0.00684404 -0.996523 0.0451454 -0.0700328 255 255 255 255 
-0.0407101 -0.0907385 0.267325 -0.197464 0.636602 0.745484 255 255 255 255 
0.0703994 0.180541 0.241266 0.596499 0.75304 -0.277704 255 255 255 255 
0.136909 0.0412675 0.117083 0.855753 -0.421104 0.300595 255 255 255 255 
-0.109904 -0.0282908 -0.266303 -0.616686 0.313581 -0.722057 255 255 255 255 
0.0735264 0.0519655 0.205799 0.519055 -0.586041 0.622204 255 255 255 255 
-0.0649327 -0.021811 -0.0985297 -0.126628 0.989716 0.0665447 255 255 255 255 
-0.122167 0.108095 0.00170755 -0.913542 0.120526 -0.388476 255 255 255 255 
0.0439647 0.139424 0.246361 -0.0160044 -0.341004 0.939926 255 255 255 255 
0.0638997 0.27544 0.0173463 0.685805 0.682046 -0.25394 255 255 255 255 
-0.042742 0.0227098 -0.284635 -0.358067 0.427408 -0.830126 255 255 255 255 
0.0742715 -0.0808298 0.241906 0.353512 0.675302 0.6473 255 255 255 255 
-0.0918562 0.0808457 -0.0444959 -0.717262 -0.150758 -0.680299 255 255 255 255 
0.0496486 0.261408 0.123591 0.43693 0.765903 0.471683 255 255 255 255 
-0.205419 -0.0994848 -0.161856 -0.867211 0.197559 -0.457073 255 255 255 255 
0.100779 -0.275785 0.153847 -0.117603 -0.950448 -0.287781 255 255 255 255 
0.0802335 0.146024 0.249257 -0.0133728 -0.336561 0.941567 255 255 255 255 
-0.182757 -0.210802 -0.160526 -0.698394 -0.532767 -0.477918 255 255 255 255 
0.0548605 0.170056 0.258506 -0.0123456 -0.330476 0.943734 255 255 255 255 
0.140554 -0.141577 0.244728 0.661717 0.273887 0.697937 255 255 255 255 
-0.268269 -0.143263 0.0224055 -0.998836 -0.00385935 0.0480836 255 255 255 255 
0.036088 0.0985694 0.275151 -0.00421477 0.870522 0.492111 255 255 255 255 
-0.258839 -0.13991 0.0698637 -0.927087 0.242271 0.286033 255 255 255 255 
0.103469 0.0156685 -0.247199 0.666573 0.739398 -0.0947175 255 255 255 255 
-0.0485059 0.0851237 -0.0775891 -0.316702 -0.18149 -0.931 255 255 255 255 
-0.0350405 -0.207773 -0.0587809 -0.0142109 -0.983363 -0.181094 255 255 255 255 
-0.0774966 0.0875519 -0.0603634 -0.62589 -0.0704528 -0.776723 255 255 255 255 
0.103672 0.215904 0.113429 0.771284 0.539816 0.337223 255 255 255 255 
-0.0814807 0.244165 0.0546031 -0.849217 0.527869 0.0135565 255 255 255 255 
-0.0629503 -0.0109149 0.165799 -0.742822 -0.412004 0.5277 255 255 255 255 
-0.0839205 0.121496 -0.0485894 -0.680314 0.1461 -0.718211 255 255 255 255 
-0.118455 0.139299 0.120144 -0.902427 0.307487 0.301792 255 255 255 255 
0.134907 -0.00832219 -0.221439 0.672498 0.73236 -0.106749 255 255 255 255 
0.122618 0.001485 -0.225207 0.667057 0.738872 -0.0954135 255 255 255 255 
0.0817988 0.210903 0.140633 0.617026 0.578701 0.533277 255 255 255 255 
0.183864 -0.225566 -0.129047 0.0106927 -0.985084 -0.171739 255 255 255 255 
0.210781 -0.222249 -0.129066 0.830887 -0.361669 -0.422874 255 255 255 255 
-0.0965207 0.0292018 0.154328 -0.800018 -0.358755 0.480902 255 255 255 255 
-0.114782 0.0464169 0.138526 -0.880367 -0.244224 0.406582 255 255 255 255 
-0.134685 -0.205568 -0.210791 0.011593 -0.996104 -0.0874244 255 255 255 255 
0.147726 -0.266821 0.214371 0.653548 -0.458619 0.602116 255 255 255 255 
-0.0730022 -0.0142473 0.139592 -0.56276 0.730242 0.387361 255 255 255 255 
-0.0595296 0.268836 0.0755931 -0.546341 0.750284 0.372271 255 255 255 255 
0.133483 -0.291732 0.208576 0.61005 -0.512349 0.604431 255 255 255 255 
-0.0686803 0.264941 0.0295967 -0.815614 0.54811 -0.185337 255 255 255 255 
-0.130832 0.0404494 0.0752898 -0.970891 -0.239324 -0.00973729 255 255 255 255 
-0.0694871 0.266882 0.0427987 -0.81076 0.585253 -0.0120869 255 255 255 255 
-0.0604233 0.277901 0.0487435 -0.582383 0.769168 0.26308 255 255 255 255 
0.047996 0.291841 0.014872 0.628774 0.767237 -0.126455 255 255 255 255 
0.129368 -0.157669 0.256976 0.631054 0.13784 0.763394 255 255 255 255 
0.15033 -0.030482 -0.246999 0.676495 0.164909 -0.717746 255 255 255 255 
0.168478 -0.0279021 -0.196246 0.227416 0.925697 0.30227 255 255 255 255 
0.182581 -0.0373741 -0.182207 0.822888 0.408461 -0.394986 255 255 255 255 
0.161007 -0.09631 -0.246551 0.722353 0.0256753 -0.691047 255 255 255 255 
-0.0133486 0.113845 0.255462 -0.205666 -0.426193 0.880943 255 255 255 255 
0.0467996 0.0775142 0.264047 0.313854 -0.751001 0.580942 255 255 255 255 
0.0564839 0.0585016 -0.270725 0.582219 0.808982 0.0810477 255 255 255 255 
-0.170749 -0.252201 0.0851273 0.0323821 -0.969877 -0.241434 255 255 255 255 
-0.190474 -0.046448 -0.151885 -0.837616 0.366228 -0.405309 255 255 255 255 
0.0268465 0.0371467 -0.060928 0.121237 -0.468469 -0.875122 255 255 255 255 
-0.0613653 0.270587 0.0185366 -0.680241 0.560439 -0.47242 255 255 255 255 
0.0293019 -0.0143007 -0.0278328 0.195864 -0.431677 -0.880507 255 255 255 255 
0.0824072 0.0323238 -0.229924 0.354657 0.775924 0.521689 255 255 255 255 
-0.0226119 0.070912 -0.26398 -0.282795 0.525746 -0.802258 255 255 255 255 
0.152549 -0.0961487 -0.255542 0.689436 0.0179905 -0.724123 255 255 255 255 
0.0773506 -0.00228836 -0.292 0.279996 0.228235 -0.932476 255 255 255 255 
-0.0452102 0.0611218 -0.253589 -0.338013 0.845451 0.413472 255 255 255 255 
-0.00307758 -0.108607 -0.309451 -0.0448936 -0.125548 -0.991071 255 255 255 255 
0.0563049 -0.0149359 0.169076 0.371097 0.713678 0.594097 255 255 255 255 
0.0491778 -0.0487873 0.215147 0.249767 0.726299 0.640395 255 255 255 255 
-0.0782956 0.248296 0.0322572 -0.836886 0.521966 -0.164842 255 255 255 255 
-0.0754311 0.256382 0.0433885 -0.835472 0.545398 -0.0672942 255 255 255 255 
0.0317824 0.294124 0.00683837 0.100954 0.6487 -0.754318 255 255 255 255 
0.136584 -0.278808 0.144909 -0.143859 -0.95102 -0.273614 255 255 255 255 
0.0870314 0.159091 0.236615 0.747811 0.645613 -0.154799 255 255 255 255 
-0.0693741 0.260252 0.0218806 -0.797435 0.538719 -0.271807 255 255 255 255 
-0.0600052 0.263432 0.00876727 -0.666897 0.555793 -0.496329 255 255 255 255 
0.0569293 0.197736 0.252828 0.453549 0.80969 -0.372418 255 255 255 255 
-0.0605763 0.279279 0.0303492 -0.765948 0.573879 -0.289803 255 255 255 255 
-0.083684 -0.0254549 0.0453631 -0.460182 0.887389 -0.0277963 255 255 255 255 
0.0641428 0.173793 0.259761 -0.0120283 -0.330678 0.943667 255 255 255 255 
-0.0346694 0.291887 0.0418472 -0.392781 0.863331 0.316832 255 255 255 255 
-0.0476656 0.289594 0.0321926 -0.440845 0.845163 0.302249 255 255 255 255 
-0.0259868 0.279323 -0.00436445 -0.352081 0.619673 -0.701459 255 255 255 255 
-0.0508122 0.276882 0.0113173 -0.586361 0.581181 -0.564278 255 255 255 255 
-0.0396394 0.283504 0.00744192 -0.497274 0.599255 -0.627385 255 255 255 255 
-0.0392487 0.294189 0.0173929 -0.547508 0.596302 -0.587076 255 255 255 255 
-0.0553161 0.284655 0.0257013 -0.706122 0.590677 -0.390504 255 255 255 255 
-0.0192247 0.302251 0.0290661 -0.322444 0.894015 0.311075 255 255 255 255 
-0.0193769 0.302547 0.0114884 -0.231729 0.646774 -0.726625 255 255 255 255 
-0.0202085 0.298786 0.0377984 -0.333671 0.888456 0.315136 255 255 255 255 
0.034417 0.135485 0.244863 -0.0189398 -0.342379 0.939371 255 255 255 255 
0.113467 0.195351 0.109139 0.838784 0.454503 0.299782 255 255 255 255 
-0.0917354 0.0276313 0.00078504 -0.714819 -0.43725 -0.545753 255 255 255 255 
-0.0480047 0.143713 0.249592 -0.1994 -0.332702 0.92171 255 255 255 255 
0.083547 0.165584 0.245361 0.743332 0.65043 -0.156202 255 255 255 255 
0.0687785 0.161106 0.183187 0.643023 0.737159 -0.207649 255 255 255 255 
-0.228915 -0.0938088 0.0865947 -0.704422 0.635727 0.315661 255 255 255 255 
-0.0386199 0.0531019 -0.230601 -0.253098 0.816308 0.519214 255 255 255 255 
-0.0084242 0.067303 -0.272435 -0.213284 0.533626 -0.818385 255 255 255 255 
-0.0635201 -0.0237456 -0.00464711 -0.308476 0.949752 -0.0530409 255 255 255 255 
-0.00070679 0.0840902 0.288117 -0.0354477 -0.804167 0.593346 255 255 255 255 
0.170858 -0.0862417 0.134032 0.607894 0.722127 0.330148 255 255 255 255 
0.103225 -0.293722 0.230945 0.462154 -0.534488 0.707627 255 255 255 255 
0.120709 -0.14714 0.261172 0.607058 0.22476 0.762209 255 255 255 255 
0.00411257 0.306011 0.0375256 -0.200877 0.927256 0.315982 255 255 255 255 
0.0373908 0.189282 0.2661 -0.00332171 -0.311727 0.950166 255 255 255 255 
0.0106509 0.312202 0.0217525 -0.102092 0.951472 0.290308 255 255 255 255 
-0.0743206 0.258381 0.055969 -0.820665 0.570037 0.0395868 255 255 255 255 
-0.00810949 0.305068 0.0316577 -0.270477 0.910044 0.314106 255 255 255 255 
-0.00267481 0.306838 0.0134929 -0.0297782 0.654331 -0.755622 255 255 255 255 
-0.109892 0.00828083 0.098414 -0.937552 -0.243745 0.248164 255 255 255 255 
-0.140995 -0.0618186 0.140689 -0.515615 0.795014 0.319521 255 255 255 255 
-0.104501 -0.278762 0.195887 -0.0714098 -0.984976 -0.157232 255 255 255 255 
-0.114127 0.0623095 0.150844 -0.879021 -0.187297 0.438454 255 255 255 255 
-0.0365787 0.228946 -0.0370668 -0.402574 0.50641 -0.76255 255 255 255 255 
-0.0106032 -0.0787849 0.259382 -0.0537539 0.689715 0.722083 255 255 255 255 
0.10069 -0.211821 -0.213295 -0.0339086 -0.991489 -0.125696 255 255 255 255 
0.0191503 -0.125043 -0.307114 0.0588914 -0.190302 -0.979958 255 255 255 255 
-0.10773 0.142051 -0.00876034 -0.862906 0.257196 -0.435021 255 255 255 255 
-0.175912 -0.170429 0.219163 -0.714523 0.144279 0.684573 255 255 255 255 
0.164276 -0.0383972 -0.156939 0.198562 0.948753 0.245848 255 255 255 255 
0.176894 -0.256399 0.181654 0.709405 -0.543106 0.4492 255 255 255 255 
0.156204 -0.248131 0.014301 -0.136434 -0.96043 -0.242815 255 255 255 255 
0.066307 0.105874 0.246853 0.0588646 0.520168 0.852033 255 255 255 255 
0.170533 -0.17037 -0.220344 0.665216 -0.406705 -0.626162 255 255 255 255 
-0.0275003 0.0502549 0.224867 -0.26673 -0.729654 0.62965 255 255 255 255 
0.122241 -0.221019 0.259528 0.598579 -0.195137 0.776933 255 255 255 255 
0.00369898 0.0702917 0.267528 -0.0287547 -0.804485 0.593277 255 255 255 255 
