ply
format ascii 1.0
comment VCGLIB generated
element vertex 630
property float x
property float y
property float z
property float nx
property float ny
property float nz
property uchar red
property uchar green
property uchar blue
property uchar alpha
element face 0
property list uchar int vertex_indices
end_header
0.103787 0.0313708 0.244895 -0.818676 0.554779 -0.148289 255 255 255 255 
0.161334 -0.0432382 0.0960231 0.684916 -0.685576 -0.246728 255 255 255 255 
-0.163597 -0.0092085 -0.0581548 -0.924503 -0.282183 0.256254 255 255 255 255 
0.0976584 -0.0748643 0.108094 -0.193584 -0.908837 0.369514 255 255 255 255 
0.111992 0.0543461 0.167728 -0.494692 0.820624 0.286105 255 255 255 255 
-0.0780307 -0.0704181 -0.35841 -0.00361609 -0.99982 0.0186138 255 255 255 255 
0.114897 -0.0464365 -0.235673 -0.746087 -0.661824 0.0730981 255 255 255 255 
-0.150093 0.0683813 -0.264106 0.110354 0.993176 0.0377146 255 255 255 255 
-0.0463219 -0.00255704 -0.314473 0.510161 0.0395363 0.85917 255 255 255 255 
-0.0656243 0.0404078 -0.133343 0.45303 0.593593 -0.66514 255 255 255 255 
-0.187624 0.0112568 0.344223 -0.833059 0.144675 0.53393 255 255 255 255 
0.207389 0.0279331 0.291762 0.942589 0.191085 0.273884 255 255 255 255 
-0.201276 -0.0380754 -0.290247 -0.859373 -0.446332 -0.249531 255 255 255 255 
0.143187 -0.0722432 0.303669 -0.260871 -0.95227 -0.158517 255 255 255 255 
-0.133336 0.0257685 -0.39907 -0.585188 0.24927 -0.771634 255 255 255 255 
-0.0682538 0.0802775 0.074011 -0.0589956 0.97069 0.232982 255 255 255 255 
-0.0762208 -0.0392355 -0.306961 0.53946 -0.64559 0.540553 255 255 255 255 
-0.166661 -0.0178225 -0.0758347 -0.892984 -0.347576 0.285956 255 255 255 255 
0.0527199 0.0619634 -0.40548 0.159183 0.758432 -0.632013 255 255 255 255 
-0.171479 -0.0173413 0.361524 -0.769084 -0.220483 0.599914 255 255 255 255 
0.115734 -0.0723298 0.0810244 0.434113 -0.89715 -0.0816515 255 255 255 255 
0.0552874 -0.0494888 -0.41968 0.191932 -0.651021 -0.734393 255 255 255 255 
0.00145317 -0.0940821 -0.0329199 0.0171011 -0.990289 -0.137966 255 255 255 255 
0.0686194 -0.00760588 0.43579 0.310583 0.0475066 0.949358 255 255 255 255 
0.158291 0.0168196 -0.0417321 0.874268 0.440801 0.203349 255 255 255 255 
0.034195 0.060891 -0.411238 0.123766 0.718374 -0.684558 255 255 255 255 
0.183365 -0.0641039 -0.204126 0.659223 -0.74507 0.101469 255 255 255 255 
0.0531128 0.0739931 0.0876485 -0.10241 0.862001 0.496454 255 255 255 255 
-0.0854712 0.0696319 -0.37422 -0.0489704 0.995748 -0.0780293 255 255 255 255 
0.0541529 -0.0889992 -0.0191951 0.188043 -0.979474 -0.0726037 255 255 255 255 
-0.0950668 0.0715542 0.109593 -0.0456807 0.986446 0.1576 255 255 255 255 
-0.0235065 0.0923893 -0.0205286 -0.0590794 0.992751 -0.104664 255 255 255 255 
-0.142243 -0.0400915 -0.0351552 -0.776844 -0.613502 0.141876 255 255 255 255 
0.2197 -0.00193388 -0.224194 0.983988 0.168502 0.0580927 255 255 255 255 
0.0740947 0.0640955 0.110361 -0.22792 0.845479 0.482926 255 255 255 255 
0.0342573 0.0166274 0.320439 -0.289662 0.431532 -0.854328 255 255 255 255 
0.205217 -0.0369918 0.198835 0.762087 -0.634272 -0.130086 255 255 255 255 
-0.176113 -0.0629691 0.293173 -0.484308 -0.853496 0.19233 255 255 255 255 
0.0785298 -0.0777237 -0.0623413 0.177143 -0.973515 -0.144527 255 255 255 255 
-0.0099966 0.0552893 -0.346583 0.0387291 0.883413 0.466992 255 255 255 255 
0.0180429 0.086545 -0.0538978 0.0247011 0.96676 -0.25449 255 255 255 255 
-0.103269 0.0462096 0.174779 0.673973 0.598354 0.43328 255 255 255 255 
-0.183904 -0.0475574 -0.156485 -0.736559 -0.63846 0.223269 255 255 255 255 
0.126174 -0.0574716 0.233213 -0.644481 -0.763765 -0.0361686 255 255 255 255 
-0.0988332 -0.0376923 -0.179525 0.738504 -0.557377 -0.379398 255 255 255 255 
-0.136104 -0.0675952 0.176064 0.501582 -0.841492 0.200768 255 255 255 255 
-0.155479 -0.0648257 0.326148 -0.419001 -0.859716 0.292105 255 255 255 255 
-0.0171129 0.0916652 -0.028969 -0.039245 0.989479 -0.139253 255 255 255 255 
0.0492026 0.0908862 0.01018 0.179082 0.983825 0.00428641 255 255 255 255 
-0.0954195 -0.0516777 -0.156551 0.608006 -0.659413 -0.442158 255 255 255 255 
0.10293 -0.0264105 0.235921 -0.908155 -0.405484 -0.104104 255 255 255 255 
0.111965 -0.0693445 -0.0576189 0.368765 -0.929492 0.00751468 255 255 255 255 
-0.123219 0.0641349 -0.27482 0.210614 0.971114 0.112159 255 255 255 255 
0.025089 -0.0578976 0.10669 -0.161905 -0.69794 0.697615 255 255 255 255 
0.037423 0.0533346 -0.419092 0.133808 0.671216 -0.729084 255 255 255 255 
-0.13979 -0.0531854 0.369379 -0.546039 -0.606886 0.577521 255 255 255 255 
0.0940882 -0.0768512 0.0196878 0.417265 -0.908567 -0.0199061 255 255 255 255 
0.0945552 -0.0615619 0.319957 -0.418031 -0.813671 -0.403968 255 255 255 255 
0.0703566 -0.000882041 -0.160305 -0.674138 -0.0823476 -0.734001 255 255 255 255 
0.0762694 0.0658814 0.392263 0.217727 0.823981 0.523117 255 255 255 255 
0.0058694 -0.0248287 -0.327082 -0.0929828 -0.454538 0.885861 255 255 255 255 
-0.149439 0.0668118 0.131995 -0.197488 0.980015 -0.0238406 255 255 255 255 
-0.190738 -0.0568835 -0.21885 -0.778662 -0.622781 0.0763426 255 255 255 255 
-0.00359531 -0.0616667 -0.100647 0.0323618 -0.75302 -0.657201 255 255 255 255 
0.114715 -0.0705684 -0.33904 -0.0140891 -0.999849 -0.0101268 255 255 255 255 
0.0148838 -0.0486924 0.343875 -0.0548535 -0.643082 -0.76383 255 255 255 255 
0.0243009 0.0350454 -0.435568 0.105109 0.486109 -0.867554 255 255 255 255 
0.0628247 -0.0186126 -0.30616 -0.571915 -0.235225 0.785864 255 255 255 255 
0.0580821 -0.00822323 -0.306759 -0.517495 -0.109957 0.848592 255 255 255 255 
0.188919 0.0142819 0.122132 0.919759 0.217897 -0.326442 255 255 255 255 
0.0599606 0.0685222 0.360969 -0.0371736 0.992813 -0.113752 255 255 255 255 
-0.146543 -0.0715772 0.304946 -0.15838 -0.981866 0.104191 255 255 255 255 
0.186037 0.0540399 -0.176475 0.714603 0.674008 0.187232 255 255 255 255 
-0.0856096 0.0571457 0.323187 0.305018 0.92821 -0.213051 255 255 255 255 
0.107261 -0.0740181 0.0638586 0.423919 -0.90386 -0.0577077 255 255 255 255 
0.14347 -0.0521653 0.0753045 0.651049 -0.731355 -0.203114 255 255 255 255 
0.0454837 -0.0886644 0.0448191 0.101984 -0.986045 0.131582 255 255 255 255 
0.0529774 -0.0883534 0.0409514 0.138715 -0.984766 0.104851 255 255 255 255 
0.178092 -0.0086725 -0.0967893 0.91888 -0.21535 0.330583 255 255 255 255 
-0.152093 -0.0713221 0.267767 0.152471 -0.987656 -0.0358953 255 255 255 255 
-0.0808854 0.0672754 0.389214 -0.258068 0.798653 0.543649 255 255 255 255 
-0.0836073 0.055866 -0.131032 0.469812 0.663373 -0.58242 255 255 255 255 
-0.104979 0.0377287 -0.263631 0.833167 0.466887 0.296394 255 255 255 255 
-0.151485 0.0214247 -0.385413 -0.682753 0.0999336 -0.723783 255 255 255 255 
0.00513328 0.0935538 -0.0141398 0.0145916 0.995775 -0.0906621 255 255 255 255 
0.1911 -0.0573008 0.242357 0.751203 -0.660068 0.00193058 255 255 255 255 
0.0521994 -0.0410477 0.128868 -0.333589 -0.618625 0.711352 255 255 255 255 
0.159517 -0.0663559 0.16686 0.478459 -0.867666 -0.135027 255 255 255 255 
-0.00644548 0.0210069 -0.329427 0.0466937 0.229609 0.972162 255 255 255 255 
-0.180407 0.0481216 0.150259 -0.777994 0.57273 -0.258273 255 255 255 255 
0.0559143 -0.0839612 0.0699992 0.0603422 -0.972858 0.223395 255 255 255 255 
-0.103215 0.0194228 -0.232562 0.936713 0.347033 0.0462317 255 255 255 255 
0.153757 -0.0711318 0.284848 -0.213612 -0.972358 -0.0942843 255 255 255 255 
-0.0966578 -0.0127535 0.195627 0.870823 -0.406765 0.27606 255 255 255 255 
0.219674 -0.0113978 0.242947 0.966937 -0.254525 0.0157942 255 255 255 255 
-0.0198143 -0.0369346 0.335947 0.174637 -0.532622 -0.82814 255 255 255 255 
-0.108288 -0.0733227 -0.0496607 -0.481127 -0.875222 0.0500349 255 255 255 255 
0.0939726 0.0741984 0.0981753 -0.00253109 0.969082 0.246726 255 255 255 255 
0.00733667 0.0648625 -0.0963736 -0.0250166 0.796304 -0.60438 255 255 255 255 
-0.131061 -0.0508095 0.0291648 -0.667131 -0.74187 -0.0675716 255 255 255 255 
0.0645133 -0.00512646 -0.437935 0.285181 0.00629937 -0.958453 255 255 255 255 
0.0226875 -0.0542007 -0.421444 0.0915685 -0.640684 -0.762325 255 255 255 255 
-0.118559 -0.0712201 0.331427 -0.0753794 -0.992521 0.0960193 255 255 255 255 
0.0422207 -0.0215522 0.44003 0.192503 -0.173225 0.965886 255 255 255 255 
-0.120047 -0.0598021 0.274349 0.51322 -0.835348 -0.196976 255 255 255 255 
-0.191998 -0.0186027 -0.13502 -0.910256 -0.274603 0.309882 255 255 255 255 
0.205853 0.000559778 0.309967 0.933681 0.0790207 0.349279 255 255 255 255 
0.140347 -0.0695544 -0.300182 -0.169874 -0.983323 0.0649469 255 255 255 255 
0.034302 0.0917411 -0.0192939 0.0964246 0.990561 -0.0974188 255 255 255 255 
0.0661815 -0.0224506 -0.434859 0.260677 -0.385752 -0.88501 255 255 255 255 
-0.149418 0.0257188 0.0282426 -0.8575 0.499779 -0.122127 255 255 255 255 
-0.0707079 -0.0851503 -0.0577885 -0.150981 -0.978828 -0.138203 255 255 255 255 
0.00833851 -0.0402525 0.338738 -0.0175382 -0.580161 -0.814313 255 255 255 255 
-0.15445 -0.00988905 0.38449 -0.707941 -0.128511 0.694482 255 255 255 255 
0.117668 -0.0704878 0.320629 -0.347411 -0.894651 -0.2809 255 255 255 255 
-0.0058118 0.0849464 -0.0611763 -0.00685797 0.952016 -0.30597 255 255 255 255 
-0.0100549 0.0638397 0.0969646 0.0492568 0.783058 0.619995 255 255 255 255 
0.104126 -0.0361981 0.259732 -0.820283 -0.5218 -0.234222 255 255 255 255 
-0.0428758 0.0690771 -0.368581 0.0249041 0.98478 0.172013 255 255 255 255 
-0.143854 -0.0415053 0.0459071 -0.731534 -0.665542 -0.14803 255 255 255 255 
-0.13769 0.0676027 -0.159526 0.200209 0.97482 -0.0981996 255 255 255 255 
0.190123 0.00254446 0.344076 0.85372 0.113414 0.508232 255 255 255 255 
0.131759 -0.060614 0.210859 -0.614936 -0.785739 0.0668477 255 255 255 255 
-0.0067337 0.00110982 0.446652 -0.0229453 -0.05244 0.99836 255 255 255 255 
0.1767 -0.0560401 0.312103 0.737778 -0.59153 0.325232 255 255 255 255 
-0.0766617 0.080216 -0.0625714 -0.200732 0.972232 -0.120296 255 255 255 255 
0.126328 -0.0465834 0.391303 0.526355 -0.498625 0.688712 255 255 255 255 
0.19364 0.0381483 0.317901 0.847258 0.377344 0.373851 255 255 255 255 
0.0676797 0.0638564 0.398743 0.21339 0.783863 0.583115 255 255 255 255 
-0.0911149 0.0130224 -0.182175 0.851231 0.202113 -0.48431 255 255 255 255 
0.00840839 0.0695124 0.378759 -0.00849273 0.938551 -0.345037 255 255 255 255 
0.209128 -0.0102455 -0.301075 0.90088 -0.285336 -0.327107 255 255 255 255 
0.212501 -0.00375932 0.29118 0.964088 0.0156912 0.26512 255 255 255 255 
-0.132777 0.0653164 0.256149 0.516568 0.852265 -0.0824715 255 255 255 255 
-0.153611 0.0370764 0.0666735 -0.842389 0.492079 -0.219634 255 255 255 255 
0.11998 0.0559651 -0.19534 -0.752145 0.629013 -0.196521 255 255 255 255 
-0.21272 -0.0277963 -0.249246 -0.925487 -0.374782 -0.0548881 255 255 255 255 
0.101288 0.0738797 0.0736465 0.350065 0.936708 -0.00569712 255 255 255 255 
-0.11492 0.0693462 0.138565 -0.017653 0.996849 0.0773363 255 255 255 255 
0.114146 -0.0664422 -0.0339459 0.495145 -0.868108 0.0349341 255 255 255 255 
0.130431 -0.0505372 -0.382083 0.482402 -0.665477 -0.569586 255 255 255 255 
0.0702899 -0.043408 0.31456 -0.458374 -0.693843 -0.555405 255 255 255 255 
-0.0709234 -0.0138964 0.434539 -0.315549 -0.168949 0.933748 255 255 255 255 
-0.0997463 0.0286693 -0.187625 0.876612 0.400982 -0.266017 255 255 255 255 
0.102579 0.0216464 -0.223597 -0.947008 0.320284 0.0243834 255 255 255 255 
-0.168949 -0.0310513 0.357611 -0.749047 -0.316873 0.581824 255 255 255 255 
-0.00253634 0.053024 0.4256 -0.0185668 0.755531 0.65485 255 255 255 255 
0.170624 -0.0593608 -0.148683 0.588826 -0.77769 0.220186 255 255 255 255 
0.153825 -0.0542896 0.106205 0.625933 -0.746563 -0.225502 255 255 255 255 
0.188042 0.0536746 0.301504 0.62373 0.744855 0.236963 255 255 255 255 
-0.0498431 -0.0047316 0.142319 0.483045 -0.0889099 0.87107 255 255 255 255 
0.200781 0.0301991 0.163913 0.868545 0.412888 -0.27414 255 255 255 255 
0.168715 -0.00613196 -0.0688279 0.916237 -0.276648 0.289786 255 255 255 255 
0.181209 -0.026811 -0.115348 0.895645 -0.295604 0.332323 255 255 255 255 
0.099345 -0.0722824 0.115527 -0.176118 -0.926748 0.331845 255 255 255 255 
-0.119399 -0.0619616 -0.0279383 -0.632594 -0.770592 0.0775417 255 255 255 255 
-0.110062 0.0398844 -0.203262 0.877876 0.456906 -0.143423 255 255 255 255 
0.165276 0.0275011 -0.367198 0.765075 0.173162 -0.620222 255 255 255 255 
-0.159773 -0.0258921 -0.0652233 -0.889298 -0.372965 0.264664 255 255 255 255 
-0.0727556 0.0164913 0.295246 0.772076 0.0288944 -0.634873 255 255 255 255 
-0.119698 0.0337722 -0.405277 -0.491676 0.452305 -0.744093 255 255 255 255 
0.176567 -0.0597731 0.305612 0.745476 -0.592093 0.306089 255 255 255 255 
-0.0170327 0.0683927 0.0925174 0.0611186 0.816535 0.574052 255 255 255 255 
0.107468 -0.0689128 0.0133497 0.510938 -0.859124 -0.029135 255 255 255 255 
-0.161899 -0.0300782 -0.0770183 -0.861841 -0.424691 0.277251 255 255 255 255 
0.0393669 0.0863806 -0.0536455 0.0594241 0.972335 -0.225906 255 255 255 255 
0.0634716 0.0330617 0.312561 -0.431103 0.594205 -0.679022 255 255 255 255 
-0.155782 -0.0685486 -0.229571 0.0256172 -0.999655 0.00581183 255 255 255 255 
-0.119933 0.0656162 -0.0659805 -0.504696 0.856742 0.106183 255 255 255 255 
-0.0775202 -0.0848948 -0.0463637 -0.236555 -0.968991 -0.0714041 255 255 255 255 
-0.100551 -0.0395827 0.269499 0.739205 -0.609278 -0.286978 255 255 255 255 
0.175818 0.0360625 -0.114932 0.759581 0.591794 0.269845 255 255 255 255 
0.0300128 -0.0653209 -0.0978888 -0.0429906 -0.810013 -0.584834 255 255 255 255 
0.17735 -0.048754 0.14379 0.651672 -0.725398 -0.221634 255 255 255 255 
-0.197255 0.0395774 0.181528 -0.835891 0.507485 -0.209154 255 255 255 255 
-0.0527989 -0.0341728 0.321138 0.416811 -0.519527 -0.745896 255 255 255 255 
0.0224076 -0.0254089 -0.325263 -0.173208 -0.371011 0.912332 255 255 255 255 
-0.0111346 -0.00429117 0.446378 -0.0443668 -0.108987 0.993053 255 255 255 255 
-0.2087 0.031146 0.207974 -0.85793 0.494899 -0.137953 255 255 255 255 
-0.112208 -0.0596779 0.291125 0.505108 -0.808147 -0.302925 255 255 255 255 
0.182435 -0.047528 0.152419 0.676476 -0.70378 -0.216964 255 255 255 255 
-0.121302 -0.0517813 -0.22322 0.794594 -0.606949 -0.0152704 255 255 255 255 
0.192531 0.000618458 -0.130349 0.939255 -0.0910954 0.330909 255 255 255 255 
0.105272 -0.0708774 -0.0320658 0.432164 -0.901787 0.00380704 255 255 255 255 
-0.00257422 -0.070641 0.373385 -0.00523214 -0.982614 -0.185588 255 255 255 255 
0.100276 0.0483403 0.162004 -0.481314 0.804381 0.348294 255 255 255 255 
0.17995 -0.0561845 0.177279 0.611298 -0.775975 -0.155493 255 255 255 255 
0.102956 -0.0330876 -0.250876 -0.836387 -0.500701 0.223059 255 255 255 255 
-0.0342251 -0.027656 -0.126562 0.132348 -0.439721 -0.88833 255 255 255 255 
-0.0530816 -0.00939914 -0.142663 0.660662 -0.238814 -0.711684 255 255 255 255 
-0.108694 -0.0625489 -0.154666 0.408675 -0.862261 -0.299151 255 255 255 255 
-0.160887 -0.0675278 0.305516 -0.396445 -0.893413 0.211292 255 255 255 255 
0.22109 0.0081558 0.240708 0.985088 0.166821 0.0421069 255 255 255 255 
-0.0359975 0.0334756 -0.326635 0.291556 0.342207 0.893247 255 255 255 255 
0.0838605 0.0700682 0.348305 -0.0444999 0.997418 -0.0563619 255 255 255 255 
-0.0011767 -0.0109917 0.127196 -0.0312771 -0.146378 0.988734 255 255 255 255 
0.212084 0.030969 -0.244849 0.924433 0.380257 -0.0287911 255 255 255 255 
-0.0806984 0.0471431 0.144138 0.542468 0.60907 0.578587 255 255 255 255 
-0.00861216 0.0196204 0.127461 0.122529 0.277308 0.952936 255 255 255 255 
-0.128481 -0.0695434 -0.14897 0.0729086 -0.992343 -0.099702 255 255 255 255 
-0.19612 -0.0408886 0.307083 -0.875584 -0.3372 0.345903 255 255 255 255 
-0.0365941 -0.0924872 0.0100537 -0.115989 -0.991176 0.064163 255 255 255 255 
-0.11993 0.0548091 0.255861 0.653595 0.749457 -0.105487 255 255 255 255 
-0.105043 0.0341971 -0.19527 0.875574 0.44354 -0.191424 255 255 255 255 
-0.137928 -0.0705785 0.161592 -0.0924047 -0.995711 -0.00466887 255 255 255 255 
0.145177 0.0163385 -0.390307 0.676718 0.0680668 -0.733089 255 255 255 255 
0.0982941 -0.00115505 0.206743 -0.988307 0.100665 0.114527 255 255 255 255 
0.113028 -0.0650406 -0.307797 -0.363729 -0.899582 0.241773 255 255 255 255 
-0.0629982 -0.0290326 0.432227 -0.263698 -0.337354 0.90369 255 255 255 255 
0.0373276 0.0662101 -0.362891 -0.0596773 0.959043 0.276904 255 255 255 255 
0.0895507 -0.0749031 -0.0694117 0.198472 -0.974325 -0.106302 255 255 255 255 
-0.116891 -0.0546337 0.262661 0.584873 -0.792184 -0.174266 255 255 255 255 
0.0735477 -0.057108 -0.407011 0.250202 -0.700563 -0.668289 255 255 255 255 
0.208879 -0.0127519 0.176425 0.961826 -0.138299 -0.236145 255 255 255 255 
0.179467 0.0350346 0.12111 0.794624 0.531543 -0.293316 255 255 255 255 
-0.0057452 0.0909891 -0.0351009 -0.0104191 0.985458 -0.169598 255 255 255 255 
-0.0884273 -0.0731433 0.0919254 -0.0701745 -0.977874 0.197076 255 255 255 255 
0.158291 -0.062334 0.142397 0.551618 -0.812314 -0.189377 255 255 255 255 
-0.0299479 0.0492294 -0.337512 0.175997 0.778748 0.602143 255 255 255 255 
0.177241 -0.0226931 -0.35384 0.782503 -0.307764 -0.541267 255 255 255 255 
-0.134871 -0.0622983 0.223536 0.559912 -0.828406 0.0155844 255 255 255 255 
0.184682 0.0518311 -0.167323 0.733551 0.646748 0.208855 255 255 255 255 
0.0106785 -0.0284395 0.441377 0.0483816 -0.283025 0.957892 255 255 255 255 
-0.00132005 0.0894871 -0.0431616 -0.00141152 0.978917 -0.204251 255 255 255 255 
-0.100018 -0.031412 -0.263384 0.787075 -0.552139 0.275054 255 255 255 255 
0.167507 0.0254492 -0.0802826 0.820682 0.50527 0.2668 255 255 255 255 
-0.166949 -0.0268829 -0.363807 -0.712698 -0.374635 -0.593052 255 255 255 255 
0.213296 0.00426539 -0.190506 0.971343 0.125155 0.202063 255 255 255 255 
-0.00503954 -0.0642326 0.097598 -0.018243 -0.75929 0.650497 255 255 255 255 
-0.191055 0.056853 -0.272093 -0.658956 0.736335 -0.153584 255 255 255 255 
-0.112114 0.0733617 0.077529 -0.191207 0.977345 0.0907612 255 255 255 255 
-0.171674 -0.000686163 0.0752569 -0.937456 0.175972 -0.30035 255 255 255 255 
0.143631 -0.0666085 -0.197509 -0.359341 -0.931118 -0.0623922 255 255 255 255 
0.0301481 -0.0229187 -0.128023 -0.281902 -0.316369 -0.905783 255 255 255 255 
0.0591738 -0.0870077 0.0469418 0.153645 -0.981918 0.11059 255 255 255 255 
-0.00823041 -0.0569423 -0.105554 0.0463429 -0.716199 -0.696356 255 255 255 255 
-0.102222 0.0543829 0.396324 -0.367316 0.717413 0.591944 255 255 255 255 
-0.0671657 -0.0315579 -0.14626 0.651577 -0.390855 -0.650138 255 255 255 255 
-0.188755 0.060538 -0.260742 -0.637304 0.762389 -0.112283 255 255 255 255 
0.203557 -0.0471256 -0.208496 0.7681 -0.634677 0.084899 255 255 255 255 
0.0529731 -0.0283348 -0.315422 -0.460888 -0.272899 0.844457 255 255 255 255 
-0.129408 -0.00120911 0.407468 -0.594426 0.0236714 0.803802 255 255 255 255 
-0.0401395 -0.0856395 0.0498504 -0.0966664 -0.976645 0.191886 255 255 255 255 
0.00299282 0.0284111 -0.12466 -0.00693529 0.595717 -0.803165 255 255 255 255 
-0.00670973 0.0826307 -0.0680428 -0.0052341 0.937981 -0.346647 255 255 255 255 
0.0657666 0.0174 -0.303506 -0.562048 0.202733 0.801874 255 255 255 255 
-0.00273071 0.0607818 0.356806 0.0098749 0.917691 -0.397173 255 255 255 255 
0.0503003 0.0674942 -0.364243 -0.066121 0.97414 0.216052 255 255 255 255 
-0.0440777 -0.0238608 0.134897 0.413418 -0.242048 0.87778 255 255 255 255 
0.187959 -0.022413 0.121498 0.816224 -0.496703 -0.295067 255 255 255 255 
0.0111011 0.0364024 0.43936 0.0413613 0.425052 0.904224 255 255 255 255 
-0.0810628 -0.0444969 -0.419302 -0.347552 -0.446997 -0.824258 255 255 255 255 
-0.184436 -0.00489975 0.347935 -0.825226 -0.118964 0.552131 255 255 255 255 
0.125168 -0.0640506 0.283113 -0.320583 -0.932802 -0.164642 255 255 255 255 
0.0975616 -0.0453618 0.161925 -0.64626 -0.634623 0.423794 255 255 255 255 
0.196419 -0.0494521 0.216881 0.728129 -0.680507 -0.0820864 255 255 255 255 
0.131092 0.0696788 0.12165 0.264451 0.962822 -0.0551408 255 255 255 255 
0.197621 -0.0496523 0.264015 0.804517 -0.584357 0.106208 255 255 255 255 
0.111824 0.0432349 0.24743 -0.769191 0.620902 -0.151082 255 255 255 255 
0.0995919 -0.031004 0.416363 0.378899 -0.542293 0.749902 255 255 255 255 
0.152409 -0.0707005 -0.18777 -0.352051 -0.932563 -0.0799184 255 255 255 255 
0.00716269 0.0654521 -0.365792 -0.0180703 0.928647 0.370526 255 255 255 255 
0.173601 -0.0609204 0.179043 0.581315 -0.800405 -0.146373 255 255 255 255 
0.137545 0.0665824 -0.108247 0.428737 0.895483 0.119562 255 255 255 255 
0.00515858 0.0874457 -0.0517437 0.00746841 0.969158 -0.246329 255 255 255 255 
0.113537 0.068208 -0.0426358 0.514913 0.853313 0.0819802 255 255 255 255 
0.210724 0.0316007 0.275785 0.941226 0.273251 0.198561 255 255 255 255 
-0.0245342 -0.0917033 -0.0453297 -0.0348765 -0.983196 -0.179192 255 255 255 255 
-0.101559 0.0311956 0.417904 -0.417721 0.461762 0.782486 255 255 255 255 
0.081713 0.0483231 -0.307883 -0.522897 0.416565 0.743675 255 255 255 255 
-0.204722 -0.0338232 -0.191347 -0.849997 -0.500369 0.164732 255 255 255 255 
0.0458741 -0.0289494 -0.436582 0.181803 -0.413568 -0.892138 255 255 255 255 
0.0505436 0.000439524 -0.143398 -0.552176 -0.0773976 -0.830128 255 255 255 255 
0.128928 0.0604408 -0.223869 -0.771873 0.635424 -0.0211481 255 255 255 255 
0.16243 -0.0663261 -0.15719 0.506087 -0.842396 0.185053 255 255 255 255 
0.129263 0.0616746 -0.254315 -0.710657 0.689484 0.139923 255 255 255 255 
0.118634 -0.0681138 -0.140021 -0.117639 -0.984509 -0.13001 255 255 255 255 
-0.143102 -0.0544349 -0.361916 -0.512576 -0.709349 -0.483829 255 255 255 255 
-0.193565 -0.0315558 0.15035 -0.901602 -0.338285 -0.269587 255 255 255 255 
-0.166764 -0.0677773 0.213244 -0.192748 -0.980554 -0.0369008 255 255 255 255 
0.110463 -0.0383795 0.208504 -0.796247 -0.594771 0.110623 255 255 255 255 
0.168487 0.0209526 -0.365762 0.775747 0.154684 -0.611793 255 255 255 255 
0.0952902 -0.0247873 0.267701 -0.865277 -0.403297 -0.297736 255 255 255 255 
0.0638292 -0.0692168 0.387937 0.120742 -0.948316 0.29346 255 255 255 255 
0.0168977 -0.0607653 -0.415861 0.0751996 -0.659979 -0.747511 255 255 255 255 
-0.0380068 0.0266522 0.132115 0.359852 0.416004 0.835133 255 255 255 255 
0.15382 -0.0675646 0.328829 0.584 -0.729987 0.355053 255 255 255 255 
-0.131617 0.0642474 -0.354813 -0.453481 0.773308 -0.443114 255 255 255 255 
-0.133644 -0.0646555 -0.241244 0.685962 -0.720452 0.102004 255 255 255 255 
-0.122442 -0.0119756 0.411334 -0.554586 -0.0763373 0.828618 255 255 255 255 
-0.0463962 0.0910231 0.0298867 -0.103392 0.99017 0.0941962 255 255 255 255 
-0.100359 -0.0245254 0.252185 0.870213 -0.448862 -0.203108 255 255 255 255 
0.0811527 -0.0627223 -0.121723 -0.203464 -0.915377 -0.3474 255 255 255 255 
-0.143048 -0.0468728 -0.371659 -0.590037 -0.556985 -0.584486 255 255 255 255 
-0.0823698 -0.0166756 0.169186 0.716151 -0.203853 0.667512 255 255 255 255 
0.125025 -0.047036 -0.390123 0.452489 -0.673905 -0.584042 255 255 255 255 
0.125546 -0.0575247 -0.201302 -0.58993 -0.801023 -0.101707 255 255 255 255 
-0.0643707 0.0837388 0.061404 -0.0818959 0.975108 0.206052 255 255 255 255 
-0.055585 -0.0705315 0.380249 -0.066589 -0.982434 0.174327 255 255 255 255 
0.0464554 0.045108 -0.425251 0.160007 0.614373 -0.772622 255 255 255 255 
0.105775 0.0312705 0.221242 -0.902765 0.429145 -0.0291409 255 255 255 255 
-0.086982 -0.0356372 0.163146 0.684285 -0.502977 0.527985 255 255 255 255 
-0.143021 0.0674815 0.125086 -0.16519 0.98626 -0.00151911 255 255 255 255 
-0.15073 0.0191284 0.0132898 -0.865891 0.495843 -0.0661239 255 255 255 255 
-0.0611545 -0.0362248 0.316822 0.44239 -0.564693 -0.696715 255 255 255 255 
0.182956 0.0628776 0.273938 0.485457 0.867024 0.112252 255 255 255 255 
0.131562 0.0708386 -0.12046 0.351335 0.932652 0.0819976 255 255 255 255 
-0.0777491 0.0777548 -0.0769517 -0.164568 0.976127 -0.141751 255 255 255 255 
0.10316 0.0562156 -0.159752 -0.672097 0.616426 -0.410249 255 255 255 255 
0.15053 -0.0194413 0.0140762 0.813528 -0.580221 -0.0389347 255 255 255 255 
-0.155333 -0.0229894 -0.0458583 -0.878136 -0.429881 0.20995 255 255 255 255 
-0.132138 -0.0500615 -0.378979 -0.547114 -0.581528 -0.602072 255 255 255 255 
0.0681155 0.0728587 -0.0950877 -0.133743 0.900606 -0.413548 255 255 255 255 
-0.152857 -0.0126485 -0.0142696 -0.942728 -0.324745 0.0761946 255 255 255 255 
0.00956145 -0.0601757 -0.417044 0.0498182 -0.672245 -0.738651 255 255 255 255 
-0.0958453 -0.011631 -0.246996 0.95308 -0.262151 0.151376 255 255 255 255 
0.0973951 0.0679265 0.329513 -0.348832 0.864576 -0.361695 255 255 255 255 
-0.129284 -0.00682213 -0.406067 -0.589201 -0.0415721 -0.806917 255 255 255 255 
-0.166403 0.0496259 0.118523 -0.812811 0.506393 -0.287931 255 255 255 255 
-0.102287 -0.0176326 0.231659 0.909482 -0.412738 -0.0498913 255 255 255 255 
0.0477625 0.0305513 -0.32013 -0.387444 0.365712 0.846251 255 255 255 255 
-0.182131 0.0619885 -0.281201 -0.60678 0.774958 -0.176801 255 255 255 255 
-0.129916 -0.0240766 -0.400054 -0.588703 -0.315155 -0.744383 255 255 255 255 
0.153167 -0.0639369 0.338773 0.609973 -0.685913 0.396808 255 255 255 255 
0.128427 0.0634964 -0.0710136 0.557723 0.816604 0.148673 255 255 255 255 
0.156619 0.0667681 -0.15962 0.332579 0.938889 0.0887587 255 255 255 255 
0.0469074 0.0022763 0.441326 0.21889 0.0370215 0.975047 255 255 255 255 
-0.141127 0.0367853 -0.0159826 -0.787431 0.613366 0.0611128 255 255 255 255 
-0.138719 -0.065267 0.233856 0.527337 -0.84921 -0.0275362 255 255 255 255 
0.0439019 0.0297833 -0.435747 0.173101 0.41198 -0.894599 255 255 255 255 
-0.0158603 0.0782799 -0.0787527 0.00479549 0.904319 -0.42683 255 255 255 255 
0.0624118 -0.0162943 -0.148325 -0.581028 -0.320831 -0.74798 255 255 255 255 
-0.162662 0.0195836 -0.0580396 -0.824976 0.521671 0.217426 255 255 255 255 
0.104521 -0.0402612 -0.18482 -0.706441 -0.652102 -0.275145 255 255 255 255 
0.158527 -0.071677 -0.172894 0.453721 -0.877861 0.153289 255 255 255 255 
0.191348 0.0228274 0.133418 0.894334 0.313629 -0.319068 255 255 255 255 
0.151786 -0.0618108 -0.118182 0.470472 -0.864458 0.17711 255 255 255 255 
-0.0349916 0.0574561 0.349843 0.100819 0.878245 -0.467463 255 255 255 255 
0.16773 0.0362618 0.100701 0.822767 0.510693 -0.249495 255 255 255 255 
-0.167807 -0.0452056 -0.344078 -0.66746 -0.56296 -0.487415 255 255 255 255 
-0.111601 -0.0428483 -0.251374 0.766098 -0.616197 0.182743 255 255 255 255 
-0.141198 0.067989 -0.274609 0.145603 0.986893 0.0695913 255 255 255 255 
-0.196516 0.0207107 -0.323497 -0.894592 0.154836 -0.419203 255 255 255 255 
-0.0896461 -0.0252162 0.425474 -0.382713 -0.312421 0.869439 255 255 255 255 
0.0666042 -0.0819624 -0.0508507 0.179007 -0.972597 -0.148363 255 255 255 255 
-0.13185 -0.0619516 0.0775662 -0.543045 -0.826364 -0.14908 255 255 255 255 
-0.111762 -0.0423612 -0.204463 0.821908 -0.543073 -0.171868 255 255 255 255 
-0.179427 0.0341309 0.341811 -0.754401 0.428562 0.497206 255 255 255 255 
-0.186129 0.0428394 0.321369 -0.774821 0.482484 0.408487 255 255 255 255 
-0.157946 -0.0106172 -0.0386123 -0.934877 -0.294219 0.198596 255 255 255 255 
-0.0825003 0.0327097 -0.292227 0.708039 0.44261 0.550252 255 255 255 255 
-0.095311 0.0437758 -0.158914 0.637903 0.616733 -0.461216 255 255 255 255 
0.0542172 -0.0892611 0.0295741 0.165149 -0.983845 0.0691038 255 255 255 255 
-0.202489 -0.0307988 0.29979 -0.908312 -0.274804 0.315359 255 255 255 255 
0.181108 -0.0590733 0.200599 0.624823 -0.772038 -0.116422 255 255 255 255 
0.173353 -0.0127961 -0.0867431 0.905222 -0.283914 0.316174 255 255 255 255 
0.173138 0.0618074 -0.306875 0.549897 0.803321 -0.228668 255 255 255 255 
-0.0662873 0.0130218 -0.301165 0.657556 0.13863 0.740542 255 255 255 255 
0.15694 0.000356708 -0.0125552 0.952542 0.284728 0.10767 255 255 255 255 
-0.132369 0.0681913 0.101748 -0.153095 0.98734 0.0414842 255 255 255 255 
-0.0162308 0.0631431 0.361729 0.0363005 0.903856 -0.426293 255 255 255 255 
0.105416 0.0719074 -0.357406 -0.0367024 0.997559 0.0594055 255 255 255 255 
-0.0235787 0.0411006 -0.432483 -0.0772522 0.56649 -0.82044 255 255 255 255 
0.20841 -0.0161931 -0.297996 0.887772 -0.339052 -0.311296 255 255 255 255 
0.1022 0.072032 0.0215259 0.432284 0.901695 0.0087685 255 255 255 255 
0.199277 -0.0184854 -0.152382 0.947386 -0.102064 0.303386 255 255 255 255 
0.0474733 0.0445867 0.122716 -0.244167 0.716969 0.652945 255 255 255 255 
0.117916 -0.0698196 -0.117119 0.0298278 -0.995412 -0.0909161 255 255 255 255 
0.0563172 0.0846683 -0.060098 0.0668038 0.969921 -0.234073 255 255 255 255 
-0.0345068 -0.0701907 -0.381585 -0.000540614 -0.996847 0.0793485 255 255 255 255 
0.0280357 0.0263247 -0.32607 -0.27425 0.309768 0.910402 255 255 255 255 
0.0778646 0.00395362 -0.290208 -0.738834 0.010012 0.673813 255 255 255 255 
-0.151218 -0.0353236 -0.373993 -0.632983 -0.47886 -0.608298 255 255 255 255 
0.0199892 -0.0713472 0.391609 0.0124858 -0.998658 0.0502561 255 255 255 255 
0.102444 -0.0718271 -0.021049 0.450884 -0.892583 0.000493563 255 255 255 255 
0.0912245 0.0496598 -0.152975 -0.64173 0.575087 -0.507403 255 255 255 255 
-0.0115216 0.00820096 0.129151 0.131679 0.0449937 0.990271 255 255 255 255 
0.154836 0.0146493 -0.381758 0.720267 0.0901595 -0.687813 255 255 255 255 
0.159797 0.0144739 0.380902 0.69048 0.223663 0.687905 255 255 255 255 
-0.182241 -0.024034 0.113793 -0.870816 -0.367397 -0.326648 255 255 255 255 
-0.0163183 -0.0711382 0.37764 -0.0107258 -0.999851 0.0135593 255 255 255 255 
-0.0572337 -0.0515792 0.121764 0.233961 -0.812526 0.533913 255 255 255 255 
-0.14386 -0.0603334 -0.0945346 -0.519249 -0.841161 0.151091 255 255 255 255 
-0.181805 0.052859 0.162947 -0.759679 0.606622 -0.234303 255 255 255 255 
-0.0816697 0.0109799 -0.168042 0.807997 0.280335 -0.518221 255 255 255 255 
-0.209329 -0.0285371 -0.201428 -0.86207 -0.489429 0.131512 255 255 255 255 
0.155229 0.000620312 0.00963954 0.96676 0.255526 -0.00900394 255 255 255 255 
0.07477 0.05444 0.408998 0.237062 0.756181 0.609911 255 255 255 255 
0.18018 -0.0303745 0.114658 0.789213 -0.541432 -0.289817 255 255 255 255 
-0.186185 -0.0215498 -0.124152 -0.893048 -0.322303 0.313983 255 255 255 255 
0.0233802 0.00741223 -0.44603 0.105702 0.137027 -0.984912 255 255 255 255 
0.0445 -0.0405638 -0.429681 0.16476 -0.552626 -0.816981 255 255 255 255 
-0.0466565 0.0499038 -0.116837 0.263499 0.667251 -0.696667 255 255 255 255 
0.129438 -0.0695202 0.150352 -0.183507 -0.960181 0.21066 255 255 255 255 
-0.188078 0.0628118 -0.22745 -0.591359 0.806359 0.00896776 255 255 255 255 
-0.135221 0.00487024 -0.401451 -0.610619 0.0711861 -0.788719 255 255 255 255 
-0.203645 -0.0167516 0.165619 -0.926722 -0.294455 -0.233416 255 255 255 255 
-0.149307 -0.0700748 0.227225 0.145089 -0.989284 -0.0163152 255 255 255 255 
-0.0116723 -0.0102659 -0.324131 0.056119 -0.0659164 0.996246 255 255 255 255 
0.0697154 -0.0847426 -0.0221941 0.256086 -0.964591 -0.0631241 255 255 255 255 
0.0821145 0.0621919 0.118454 -0.274782 0.849681 0.45004 255 255 255 255 
0.118624 0.0670856 -0.362426 0.346499 0.864737 -0.363549 255 255 255 255 
-0.122593 -0.0554089 0.194755 0.603649 -0.780451 0.1628 255 255 255 255 
-0.0525874 0.085648 0.0576148 -0.0643504 0.974474 0.21508 255 255 255 255 
0.0109715 0.0359206 -0.120582 -0.0453326 0.624097 -0.78003 255 255 255 255 
-0.0852033 0.0731841 -0.0996089 -0.116043 0.983431 -0.139275 255 255 255 255 
0.00319693 -0.0460013 -0.430411 0.0241954 -0.577921 -0.815734 255 255 255 255 
0.132316 -0.0543925 0.0499647 0.647457 -0.747356 -0.149193 255 255 255 255 
-0.208932 -0.0352219 -0.235278 -0.879228 -0.476191 0.0141793 255 255 255 255 
-0.0166204 -0.0178264 0.443886 -0.06589 -0.220965 0.973053 255 255 255 255 
0.121911 0.0604752 0.0292352 0.552334 0.833621 -0.00185729 255 255 255 255 
-0.134573 0.0654193 0.355318 -0.510203 0.693925 0.508095 255 255 255 255 
0.103028 -0.0385897 0.266143 -0.773833 -0.561263 -0.293542 255 255 255 255 
0.149142 0.0332818 0.382549 0.63318 0.370786 0.679412 255 255 255 255 
-0.218444 0.0115255 -0.263325 -0.988105 -0.0105897 -0.153413 255 255 255 255 
-0.136944 -0.0421697 -0.0127921 -0.746281 -0.662848 0.0608061 255 255 255 255 
0.123561 -0.057882 0.0300719 0.625604 -0.775432 -0.0855823 255 255 255 255 
-0.152566 -0.0420496 0.0723752 -0.717866 -0.655929 -0.233294 255 255 255 255 
0.0887233 0.0192513 0.424976 0.401452 0.226359 0.887467 255 255 255 255 
0.09 -0.0795465 0.0347409 0.363899 -0.931428 -0.00446731 255 255 255 255 
-0.0541017 -0.0698371 -0.385169 -0.0192181 -0.999596 -0.0209509 255 255 255 255 
0.0307703 -0.0170887 0.132143 -0.288253 -0.0985888 0.952465 255 255 255 255 
-0.0919855 0.0699947 -0.351256 0.0842319 0.992353 0.0902204 255 255 255 255 
-0.0351983 -0.0166772 -0.443654 -0.153333 -0.126358 -0.980063 255 255 255 255 
-0.129106 0.0612885 0.0499603 -0.72078 0.684574 -0.108788 255 255 255 255 
0.0808616 0.0549911 0.129229 -0.337476 0.80899 0.481296 255 255 255 255 
0.0372145 -0.00081397 0.443263 0.17467 0.00422897 0.984618 255 255 255 255 
-0.128426 -0.0705338 0.302879 0.290073 -0.94317 -0.162134 255 255 255 255 
0.106217 0.0440284 -0.18512 -0.764776 0.571851 -0.296822 255 255 255 255 
0.118906 0.0479831 0.233696 -0.722222 0.688395 -0.067141 255 255 255 255 
0.146174 0.0405005 -0.0460418 0.767599 0.611718 0.191292 255 255 255 255 
-0.161104 0.0639805 -0.318818 -0.506435 0.803233 -0.313592 255 255 255 255 
0.101608 0.0700065 0.363658 0.0884745 0.986246 0.139612 255 255 255 255 
-0.0825879 -0.0756323 0.0793221 -0.0824945 -0.973643 0.212635 255 255 255 255 
-0.216188 0.0197523 0.214815 -0.890177 0.440155 -0.117682 255 255 255 255 
0.11033 0.04599 -0.191893 -0.769196 0.587861 -0.250515 255 255 255 255 
0.0670383 -0.0368214 0.426645 0.276645 -0.534961 0.798301 255 255 255 255 
0.0860984 0.0519417 0.313383 -0.465409 0.733102 -0.495939 255 255 255 255 
0.124175 -0.0549587 -0.212026 -0.664989 -0.744226 -0.0625879 255 255 255 255 
0.0444491 0.0916513 0.0210285 0.160534 0.986432 0.0343767 255 255 255 255 
0.0759142 0.058029 0.403998 0.232989 0.776863 0.584978 255 255 255 255 
0.18527 0.063706 0.25136 0.457072 0.887129 0.0639356 255 255 255 255 
0.214992 0.0143097 -0.270511 0.945276 0.283963 -0.160679 255 255 255 255 
-0.219231 -0.00950252 0.234159 -0.962765 -0.269239 0.0243663 255 255 255 255 
0.114569 -0.0448806 -0.223577 -0.735036 -0.678016 0.00393257 255 255 255 255 
-0.147345 0.0602398 -0.344704 -0.485704 0.774645 -0.40499 255 255 255 255 
-0.161131 -0.0397512 -0.088223 -0.832856 -0.475946 0.282535 255 255 255 255 
0.0949072 -0.0597989 -0.39451 0.327068 -0.737529 -0.590828 255 255 255 255 
-0.0742284 0.0125008 -0.43472 -0.340762 0.0200384 -0.939936 255 255 255 255 
0.0657422 -0.0679639 -0.35523 -0.184287 -0.915268 0.358222 255 255 255 255 
-0.0806486 -0.0523335 -0.140609 0.535631 -0.647475 -0.542103 255 255 255 255 
-0.0571983 -0.0878035 -0.0506522 -0.130766 -0.982324 -0.133937 255 255 255 255 
-0.106307 0.0622608 -0.381871 -0.360461 0.777195 -0.515786 255 255 255 255 
-0.214305 0.0105485 0.193562 -0.901804 0.389038 -0.188148 255 255 255 255 
0.162006 -0.00894861 0.378775 0.711037 -0.189208 0.67722 255 255 255 255 
0.132983 0.0677658 -0.347177 0.33194 0.902435 -0.274639 255 255 255 255 
0.183545 0.0401 -0.140525 0.784344 0.562453 0.26163 255 255 255 255 
0.179448 0.0575646 0.158857 0.776626 0.571437 -0.265165 255 255 255 255 
0.158964 -0.0571989 -0.116716 0.523045 -0.828027 0.201978 255 255 255 255 
0.0247873 -0.0298844 0.126117 -0.208866 -0.428249 0.879192 255 255 255 255 
0.21899 0.0182429 0.241345 0.954943 0.292493 0.0503209 255 255 255 255 
-0.130529 -0.0707001 -0.132993 -0.22768 -0.973284 0.02967 255 255 255 255 
-0.217664 -0.0147124 -0.228773 -0.954103 -0.298687 0.0217748 255 255 255 255 
-0.151509 0.0620445 -0.121944 -0.592764 0.768239 0.241742 255 255 255 255 
-0.207523 -0.0354623 0.273566 -0.911889 -0.363076 0.191402 255 255 255 255 
-0.152083 -0.0116807 -0.00691585 -0.980765 -0.192114 0.0345272 255 255 255 255 
-0.141334 -0.0712105 -0.308995 0.0516289 -0.996167 0.0706171 255 255 255 255 
0.175555 -0.0204581 0.093226 0.924419 -0.223489 -0.309036 255 255 255 255 
-0.107474 0.0486982 -0.273834 0.779319 0.521538 0.347361 255 255 255 255 
0.150329 -0.0688947 0.161811 0.298294 -0.9527 -0.0581634 255 255 255 255 
-0.0755243 -0.0291817 -0.29828 0.597642 -0.591303 0.541466 255 255 255 255 
-0.0830896 -0.0832616 -0.0513634 -0.225467 -0.970684 -0.0832911 255 255 255 255 
-0.156276 -0.0706056 0.29891 -0.320832 -0.932407 0.166385 255 255 255 255 
-0.204526 0.00617897 -0.3104 -0.931274 0.0768345 -0.356125 255 255 255 255 
-0.0738913 -0.0521058 0.322292 0.454013 -0.642856 -0.616935 255 255 255 255 
-0.0562186 0.000542408 0.308804 0.672156 -0.1268 -0.729471 255 255 255 255 
-0.0717556 -0.064216 -0.115961 0.260214 -0.833133 -0.488035 255 255 255 255 
0.102721 0.0648967 -0.318441 -0.36793 0.875388 0.313565 255 255 255 255 
-0.0439378 -0.0135858 0.441048 -0.184218 -0.247078 0.951323 255 255 255 255 
0.0885902 0.0703221 -0.110186 -0.199615 0.906414 -0.372246 255 255 255 255 
0.0432114 -0.027012 0.321979 -0.374086 -0.4379 -0.817498 255 255 255 255 
0.0155375 -0.0599284 0.102879 -0.110633 -0.69036 0.714957 255 255 255 255 
0.0958832 0.0694026 0.373016 0.118619 0.97019 0.211334 255 255 255 255 
-0.163804 -0.0625566 0.141696 -0.294406 -0.950242 -0.101805 255 255 255 255 
-0.121132 0.0589319 -0.374547 -0.426396 0.744322 -0.513976 255 255 255 255 
0.0987011 0.0634882 0.388111 0.224922 0.873774 0.431195 255 255 255 255 
-0.0659952 -0.0708342 0.3727 -0.0761895 -0.983287 0.165356 255 255 255 255 
0.191039 0.00881047 -0.124954 0.942344 -0.0229112 0.333861 255 255 255 255 
-0.0635528 0.0702458 -0.379214 -0.00371742 0.999084 0.0426276 255 255 255 255 
-0.140498 0.0556331 -0.0814456 -0.59621 0.778719 0.195269 255 255 255 255 
-0.148043 0.0351592 0.0452757 -0.835407 0.524294 -0.164957 255 255 255 255 
0.0221835 0.0281085 0.441266 0.0984842 0.267684 0.95846 255 255 255 255 
-0.110398 -0.0589617 -0.292515 0.582221 -0.735835 0.345783 255 255 255 255 
-0.188875 0.0365861 -0.330186 -0.816137 0.386467 -0.429609 255 255 255 255 
-0.0812046 -0.0798399 -0.0843882 -0.00508441 -0.963549 -0.267482 255 255 255 255 
0.0927866 0.0377947 -0.167819 -0.731453 0.510271 -0.452326 255 255 255 255 
0.006457 0.0169186 -0.445518 0.0460952 0.315729 -0.947729 255 255 255 255 
0.202168 0.0502218 0.269262 0.718982 0.683196 0.127705 255 255 255 255 
-0.17189 0.0191355 0.0901646 -0.885537 0.356068 -0.298396 255 255 255 255 
-0.0916615 0.00146642 -0.188157 0.888597 -0.0364549 -0.457237 255 255 255 255 
0.0359028 -0.0701196 0.369254 -0.104478 -0.906462 -0.409159 255 255 255 255 
0.00525556 0.0787233 -0.0767094 -0.00653567 0.912359 -0.40934 255 255 255 255 
0.180155 0.0643234 -0.213392 0.343603 0.937847 0.0487913 255 255 255 255 
0.169166 -0.0147609 0.0737515 0.932959 -0.235623 -0.272156 255 255 255 255 
0.20605 0.044433 0.213371 0.849557 0.52139 -0.080033 255 255 255 255 
0.177311 -0.0282349 -0.107265 0.888343 -0.321042 0.328297 255 255 255 255 
-0.0615574 0.0221771 0.147806 0.547581 0.414145 0.727076 255 255 255 255 
0.0905363 0.0773977 -0.0899478 -0.0539659 0.95469 -0.29267 255 255 255 255 
-0.165156 0.0681768 0.18558 -0.287245 0.954931 -0.07482 255 255 255 255 
0.084676 -0.0457518 -0.414177 0.29714 -0.643903 -0.705051 255 255 255 255 
0.0501483 0.0815679 0.0763067 0.00649363 0.930666 0.365813 255 255 255 255 
-0.18087 -0.0461694 -0.14364 -0.731102 -0.639064 0.238929 255 255 255 255 
0.063378 0.0877999 0.00192107 0.236796 0.971529 -0.00764102 255 255 255 255 
0.0806607 -0.0484127 0.139611 -0.455395 -0.711491 0.53516 255 255 255 255 
0.0546009 0.0467627 0.123773 -0.276732 0.733537 0.62076 255 255 255 255 
0.144366 -0.0456472 -0.0545391 0.768941 -0.605499 0.205185 255 255 255 255 
-0.105209 0.0638472 -0.141757 0.54072 0.698548 -0.468671 255 255 255 255 
0.118578 0.0658486 0.0671981 0.451428 0.890252 -0.0605336 255 255 255 255 
-0.0202001 -0.0677619 -0.367585 0.00343227 -0.978579 0.205842 255 255 255 255 
-0.0879325 -0.0481528 0.304024 0.510372 -0.703535 -0.494529 255 255 255 255 
0.166397 -0.0249594 0.0762138 0.793227 -0.549496 -0.262384 255 255 255 255 
-0.149865 -0.029085 -0.0363001 -0.832237 -0.529113 0.165594 255 255 255 255 
0.119803 -0.0567036 -0.382401 0.415793 -0.730395 -0.541885 255 255 255 255 
0.156479 -0.0309381 0.374224 0.674353 -0.404724 0.617614 255 255 255 255 
0.12846 0.065827 0.0924605 0.455665 0.882468 -0.116703 255 255 255 255 
0.0257251 0.0541107 -0.420457 0.104959 0.656235 -0.747221 255 255 255 255 
0.18255 0.00487335 0.103658 0.942242 0.121814 -0.311995 255 255 255 255 
0.0136493 -0.090702 0.0395361 0.0125809 -0.988064 0.15353 255 255 255 255 
0.0532012 0.0697798 0.377183 -0.0183752 0.993813 -0.109535 255 255 255 255 
0.171025 -0.0426531 -0.346789 0.736513 -0.460806 -0.495183 255 255 255 255 
0.191185 -0.0576997 -0.203117 0.683918 -0.722143 0.103762 255 255 255 255 
-0.0134468 -0.0721111 -0.0892514 0.0559922 -0.836895 -0.544493 255 255 255 255 
-0.109658 -0.0713954 0.0812064 -0.255837 -0.965976 0.0379079 255 255 255 255 
0.106219 -0.030842 0.226882 -0.843168 -0.537601 -0.00723142 255 255 255 255 
0.178683 -0.0643729 0.220052 0.656697 -0.749825 -0.0806924 255 255 255 255 
-0.0970398 0.0498047 0.160696 0.636374 0.583346 0.504714 255 255 255 255 
0.086477 0.0287511 0.4233 0.39465 0.261518 0.880829 255 255 255 255 
-0.156146 -0.0627629 0.128259 -0.383903 -0.912499 -0.141294 255 255 255 255 
-0.0978355 -0.0757655 0.011324 -0.45386 -0.890832 0.0207143 255 255 255 255 
0.197595 0.0539648 -0.22324 0.681751 0.729523 0.0548736 255 255 255 255 
-0.00509728 -0.0916779 0.0317311 -0.0308829 -0.989682 0.139912 255 255 255 255 
0.187419 -0.0180519 -0.12435 0.920923 -0.200834 0.334016 255 255 255 255 
0.0419764 -0.0795412 -0.0716488 0.0611641 -0.946579 -0.316618 255 255 255 255 
-0.143972 0.0708278 0.183236 0.0370664 0.999099 0.0206547 255 255 255 255 
-0.073424 0.00394208 0.29271 0.752241 -0.0581792 -0.656314 255 255 255 255 
-0.152478 -0.0226024 -0.0333339 -0.884496 -0.436472 0.164799 255 255 255 255 
-0.180625 -0.0423032 -0.329547 -0.739073 -0.513776 -0.435666 255 255 255 255 
0.0869226 0.0808672 -0.0622754 0.24339 0.966696 -0.0791187 255 255 255 255 
-0.0333344 -0.0908158 0.0256381 -0.101629 -0.987722 0.118648 255 255 255 255 
0.0963126 0.0216558 -0.263356 -0.908988 0.280622 0.308207 255 255 255 255 
-0.121446 -0.0507219 -0.38802 -0.539652 -0.50632 -0.672619 255 255 255 255 
0.118386 0.0666644 -0.0542957 0.546346 0.829574 0.115382 255 255 255 255 
0.189269 0.0591159 -0.266997 0.637655 0.763669 -0.101025 255 255 255 255 
-0.0403428 0.0860859 0.0601499 -0.0326938 0.964957 0.260364 255 255 255 255 
-0.123378 -0.0320673 0.402476 -0.486407 -0.52537 0.698137 255 255 255 255 
-0.0796306 -0.0737157 0.088498 -0.0225732 -0.96471 0.262347 255 255 255 255 
-0.0382003 0.0475668 0.428353 -0.124281 0.723963 0.678551 255 255 255 255 
0.0351943 -0.0603511 0.352458 -0.147635 -0.806651 -0.572292 255 255 255 255 
0.0110784 0.055553 -0.105514 -0.0410617 0.730121 -0.682083 255 255 255 255 
-0.142438 -0.0700268 0.323692 -0.237422 -0.954636 0.179724 255 255 255 255 
0.121002 0.0616475 0.0410489 0.488625 0.872223 -0.0217637 255 255 255 255 
0.0799224 0.0229196 -0.429363 0.351443 0.171819 -0.920307 255 255 255 255 
0.13524 -0.0627968 -0.241346 -0.438295 -0.897875 0.0414404 255 255 255 255 
-0.102183 -0.0602819 0.307242 0.498562 -0.749635 -0.435298 255 255 255 255 
0.0875395 -0.0779293 0.0946977 -0.0890228 -0.938663 0.333146 255 255 255 255 
-0.144985 0.0701865 0.306031 0.111956 0.991415 -0.0675474 255 255 255 255 
0.0284814 -0.0885701 0.0503938 0.0416971 -0.983644 0.175228 255 255 255 255 
0.0596527 0.0634047 -0.401996 0.169109 0.773774 -0.610472 255 255 255 255 
-0.158959 -0.0275102 0.0603055 -0.791991 -0.565943 -0.229038 255 255 255 255 
0.0103349 -0.0842907 0.0657907 -0.0158567 -0.962238 0.271746 255 255 255 255 
0.0471887 0.00928526 0.139557 -0.414937 0.071303 0.907052 255 255 255 255 
0.208539 0.0247607 -0.285967 0.915333 0.327026 -0.234987 255 255 255 255 
0.0978209 -0.0740547 -0.00959016 0.435734 -0.899989 -0.0125038 255 255 255 255 
-0.183563 -0.0590924 0.290969 -0.518818 -0.83304 0.192022 255 255 255 255 
0.0608441 -0.0803368 -0.0632417 0.121719 -0.969105 -0.214524 255 255 255 255 
0.103874 -0.0431338 -0.177901 -0.70071 -0.622496 -0.348575 255 255 255 255 
0.1011 -0.0710104 -0.0976924 0.0920068 -0.989255 -0.113619 255 255 255 255 
-0.124588 -0.0710994 -0.110833 -0.308478 -0.950018 0.0480362 255 255 255 255 
0.0938027 -0.0643395 -0.389073 0.326089 -0.746463 -0.580051 255 255 255 255 
0.163923 -0.0566009 -0.125751 0.563725 -0.795285 0.223015 255 255 255 255 
-0.134389 -0.0656816 -0.0964702 -0.430655 -0.896205 0.106554 255 255 255 255 
0.148173 0.0701341 0.196368 -0.0465741 0.997041 0.0611585 255 255 255 255 
0.12525 0.0567315 -0.0164496 0.618559 0.781615 0.0803942 255 255 255 255 
0.0151358 -0.0877013 0.0538406 0.00360136 -0.978051 0.208335 255 255 255 255 
-0.0243648 -0.000451286 0.131948 0.300497 -0.0262527 0.953421 255 255 255 255 
-0.08546 0.0777147 -0.0686349 -0.202163 0.973018 -0.111207 255 255 255 255 
-0.167161 0.0695661 -0.221017 0.125058 0.992145 -0.00300509 255 255 255 255 
0.161114 0.0529961 -0.113829 0.669312 0.704967 0.234612 255 255 255 255 
-0.0882015 -0.0392123 -0.419209 -0.386756 -0.414501 -0.823777 255 255 255 255 
0.0307579 -0.00142953 0.444285 0.142374 -0.0201904 0.989607 255 255 255 255 
-0.0748532 0.0559042 -0.32607 0.400229 0.765081 0.504449 255 255 255 255 
-0.0256967 -0.0288452 0.33015 0.221274 -0.507418 -0.832806 255 255 255 255 
0.20079 -0.005439 -0.152253 0.948897 -0.0872347 0.303291 255 255 255 255 
0.0848259 0.0132233 -0.285021 -0.709052 0.191552 0.678641 255 255 255 255 
0.122945 0.0549606 -0.24836 -0.747058 0.655711 0.109302 255 255 255 255 
0.0630174 0.0415332 0.134144 -0.338158 0.736704 0.58559 255 255 255 255 
-0.124765 -0.0547752 0.000662165 -0.662193 -0.74918 0.0151634 255 255 255 255 
0.202656 0.0413743 0.188049 0.832489 0.521233 -0.187827 255 255 255 255 
-0.157114 0.0711967 0.177098 -0.399081 0.909889 -0.113298 255 255 255 255 
0.213999 0.00957322 -0.197611 0.963951 0.204075 0.17074 255 255 255 255 
0.171263 0.0358435 -0.104361 0.781499 0.559768 0.275533 255 255 255 255 
-0.0553264 -0.0200097 0.142385 0.501626 -0.219963 0.836653 255 255 255 255 
0.0881456 -0.000350737 0.181527 -0.733837 -0.295857 0.611516 255 255 255 255 
-0.144586 -0.0162747 0.393079 -0.652603 -0.205735 0.729234 255 255 255 255 
0.0596237 0.0157316 -0.307411 -0.530455 0.203563 0.82291 255 255 255 255 
-0.0866335 0.0674667 -0.386203 -0.17411 0.939274 -0.29572 255 255 255 255 
0.0886306 -0.0760461 -0.0599918 0.231009 -0.968326 -0.0947573 255 255 255 255 
-0.015573 -0.0153402 0.127869 0.124031 -0.25044 0.960154 255 255 255 255 
-0.163477 -0.0346924 0.362274 -0.713286 -0.372871 0.593456 255 255 255 255 
-0.211329 -0.0127845 0.188841 -0.940115 -0.294482 -0.171653 255 255 255 255 
-0.101086 -0.0725626 0.0915817 -0.17346 -0.980556 0.0917671 255 255 255 255 
0.0672492 0.0218077 -0.433737 0.289515 0.221622 -0.931163 255 255 255 255 
0.19081 -0.0119168 0.121784 0.935623 -0.119815 -0.332044 255 255 255 255 
0.20473 -0.0113398 -0.162959 0.95855 -0.0431552 0.281637 255 255 255 255 
0.135628 0.0715964 -0.155324 -0.129262 0.981371 -0.142133 255 255 255 255 
0.18145 0.0651289 -0.233097 0.449842 0.892877 0.0202933 255 255 255 255 
0.135725 0.0678053 0.113653 0.260247 0.964516 -0.0444955 255 255 255 255 
0.0707202 -0.0734451 -0.0852709 0.0531743 -0.964481 -0.258745 255 255 255 255 
0.0844987 -0.0246969 -0.428374 0.360432 -0.28557 -0.887997 255 255 255 255 
-0.0784737 -0.083287 0.027098 -0.277104 -0.958015 0.0736297 255 255 255 255 
0.113543 0.0605258 0.153381 -0.438153 0.841345 0.316482 255 255 255 255 
0.178382 0.00512252 0.0951997 0.914519 0.311897 -0.257635 255 255 255 255 
-0.215578 -0.0214495 0.247452 -0.942039 -0.327949 0.070797 255 255 255 255 
-0.159914 -0.0638792 -0.144898 -0.521421 -0.837673 0.162556 255 255 255 255 
0.104432 -0.0315846 0.247565 -0.861323 -0.477911 -0.172407 255 255 255 255 
-0.0887692 -0.0632872 0.39405 -0.275661 -0.819855 0.501845 255 255 255 255 
-0.19665 0.0215564 0.324619 -0.832944 0.353362 0.425841 255 255 255 255 
-0.17242 -0.0282007 0.0957199 -0.81352 -0.493305 -0.307953 255 255 255 255 
0.0115309 -0.0316224 0.12261 -0.125574 -0.499105 0.857395 255 255 255 255 
0.174876 -0.041138 0.339913 0.720888 -0.544715 0.428492 255 255 255 255 
