ply
format ascii 1.0
comment VCGLIB generated
element vertex 632
property float x
property float y
property float z
property float nx
property float ny
property float nz
property uchar red
property uchar green
property uchar blue
property uchar alpha
element face 0
property list uchar int vertex_indices
end_header
0.0765342 -0.10557 0.0911352 0.379954 -0.25799 0.8883 255 255 255 255 
0.0657172 -0.325558 -0.0172026 -0.673886 -0.278412 0.684372 255 255 255 255 
0.11629 0.0886057 0.114307 -0.172319 -0.0601848 0.983201 255 255 255 255 
0.125644 -0.17681 -0.0445122 0.764421 -0.507859 -0.397163 255 255 255 255 
0.124577 -0.217114 -0.0265044 0.814254 -0.145372 -0.562012 255 255 255 255 
0.258916 -0.20439 -0.195277 0.628247 0.604897 -0.489291 255 255 255 255 
0.155792 0.186837 0.137929 -0.63301 -0.634835 0.443038 255 255 255 255 
0.125392 -0.114853 0.160707 -0.517884 -0.602702 -0.607081 255 255 255 255 
0.0804364 -0.018318 0.165959 0.501957 0.508302 0.699763 255 255 255 255 
0.0143148 -0.241407 0.0386658 0.603877 -0.788381 0.11742 255 255 255 255 
0.161016 -0.0281607 0.11437 0.57743 0.402071 0.710573 255 255 255 255 
0.105955 0.0823366 0.0126834 -0.31611 0.603106 -0.732351 255 255 255 255 
0.113133 -0.263035 -0.0059467 0.772705 -0.29537 0.561857 255 255 255 255 
0.134713 -0.0807277 -0.0510858 0.566293 0.604355 -0.560416 255 255 255 255 
0.119885 -0.157037 0.0404835 0.611458 -0.347073 0.711098 255 255 255 255 
0.125982 0.237312 0.0628867 0.0491065 0.807041 -0.58845 255 255 255 255 
0.159059 0.177583 0.131595 -0.65595 -0.615416 0.437026 255 255 255 255 
0.156078 -0.0404873 -0.00916082 0.462702 0.401348 -0.79046 255 255 255 255 
0.190038 0.164591 0.156577 -0.638913 -0.563535 0.523659 255 255 255 255 
0.0825979 0.0554942 -0.0359058 0.111645 0.910991 -0.397029 255 255 255 255 
-0.0839697 -0.086354 -0.107248 -0.17026 0.318012 -0.932674 255 255 255 255 
-0.186855 -0.094432 0.0377325 -0.897827 0.404909 0.17308 255 255 255 255 
-0.140139 -0.0293011 0.0887026 -0.750164 0.581293 0.315204 255 255 255 255 
0.0749889 -0.328842 -0.0672528 -0.0202315 -0.796241 -0.604641 255 255 255 255 
0.0250864 0.0156851 0.0500994 -0.390313 0.853507 -0.345227 255 255 255 255 
0.102351 -0.0829286 0.190438 0.568413 0.322146 0.757053 255 255 255 255 
0.121466 -0.0499434 0.0817188 0.443559 -0.259613 0.857821 255 255 255 255 
-0.111021 -0.191507 0.111519 -0.405765 -0.469781 0.784003 255 255 255 255 
0.224984 0.128714 0.108783 0.51335 0.448758 -0.731497 255 255 255 255 
0.173801 0.1182 0.112488 -0.0631487 -0.0826663 0.994575 255 255 255 255 
0.0237296 -0.110273 -0.0937244 -0.0941546 0.531309 -0.84193 255 255 255 255 
0.159135 0.201861 0.156004 -0.522705 -0.632287 0.571833 255 255 255 255 
0.109804 -0.184425 -0.0967874 -0.0633599 -0.992239 0.106993 255 255 255 255 
-0.189038 -0.2736 -0.158004 0.756302 -0.0606471 -0.651406 255 255 255 255 
0.216172 -0.0718172 0.0586202 -0.272099 -0.551058 -0.788858 255 255 255 255 
0.104861 -0.184029 0.0385446 0.527273 -0.375013 0.762462 255 255 255 255 
0.085031 -0.0617963 0.153302 -0.560823 -0.475799 -0.677564 255 255 255 255 
-0.0472278 -0.251524 0.0799448 -0.0531821 -0.771358 0.634176 255 255 255 255 
0.0546939 -0.134151 -0.114473 -0.480873 -0.36591 -0.796788 255 255 255 255 
0.115069 -0.145537 0.0501302 0.585692 -0.346445 0.732763 255 255 255 255 
-0.189135 -0.0961722 -0.016996 -0.860678 0.466215 -0.20464 255 255 255 255 
-0.0690198 -0.0277614 0.0777433 0.148609 0.913841 0.377902 255 255 255 255 
-0.152873 -0.0563985 -0.0419934 -0.742422 0.522153 -0.419722 255 255 255 255 
0.0913332 -0.289158 -0.0643894 0.154728 0.288483 -0.9449 255 255 255 255 
0.0934412 -0.127278 0.0737723 0.478961 -0.328179 0.814184 255 255 255 255 
-0.220341 -0.301223 -0.168325 0.0857244 -0.848912 -0.521536 255 255 255 255 
-0.0609818 -0.324531 -0.025871 0.963036 -0.231936 -0.136996 255 255 255 255 
-0.0432599 -0.118717 0.134812 0.421708 0.320917 0.848042 255 255 255 255 
-0.177899 -0.106101 0.0745281 -0.86702 0.209345 0.452163 255 255 255 255 
0.0748877 -0.0360504 0.100369 0.158776 0.0247717 0.987004 255 255 255 255 
0.118436 -0.187927 -0.112545 -0.423562 -0.824782 -0.374606 255 255 255 255 
0.0663789 0.0497172 0.0575057 -0.865271 0.456063 -0.208118 255 255 255 255 
0.180934 0.161843 0.118437 0.879138 0.466022 -0.0996952 255 255 255 255 
0.204667 0.0521475 0.0501106 0.879684 -0.356528 -0.314713 255 255 255 255 
0.149825 0.0114915 0.0986235 0.543634 0.320787 0.775601 255 255 255 255 
-0.0694165 -0.0756981 0.120281 0.19848 0.492154 0.847579 255 255 255 255 
0.1647 0.10512 0.113004 -0.0512239 -0.0986965 0.993798 255 255 255 255 
0.116889 -0.304732 -0.0278271 0.677707 -0.158435 0.718061 255 255 255 255 
0.0058949 -0.206956 -0.0715938 0.267555 -0.775851 -0.571376 255 255 255 255 
-0.189163 -0.166159 -0.029741 -0.854535 -0.516574 -0.0540549 255 255 255 255 
0.00357569 0.00984419 0.061612 -0.403152 0.856331 -0.322749 255 255 255 255 
-0.196649 -0.305849 -0.134213 0.359633 -0.644178 0.675054 255 255 255 255 
0.0780281 0.0821436 0.0693839 -0.912141 0.378772 -0.156623 255 255 255 255 
0.158252 0.00801013 0.0939978 0.579367 0.309404 0.754057 255 255 255 255 
0.0359983 -0.0732831 0.216121 -0.231239 -0.392199 0.890342 255 255 255 255 
0.101973 -0.0702311 0.145426 -0.55399 -0.494005 -0.670115 255 255 255 255 
-0.193799 -0.297024 -0.169836 0.131049 -0.84528 -0.518004 255 255 255 255 
-0.101101 -0.357904 -0.0452938 0.0466923 -0.921672 -0.385151 255 255 255 255 
0.08453 -0.00179828 0.0952637 -0.734394 -0.49541 0.463933 255 255 255 255 
0.0879219 0.255695 0.117822 -0.924758 -0.0493531 -0.377342 255 255 255 255 
-0.201024 -0.146826 0.0377619 -0.880412 -0.10747 0.461871 255 255 255 255 
-0.209536 -0.181276 0.0068358 -0.721063 -0.426726 0.54587 255 255 255 255 
-0.111827 -0.300674 -0.0478716 -0.47362 0.1636 -0.865401 255 255 255 255 
-0.146979 -0.112427 0.116964 -0.549073 0.0824137 0.831702 255 255 255 255 
0.0253195 0.0282416 -0.047694 -0.194742 -0.900823 0.388064 255 255 255 255 
0.0315846 -0.14421 0.0909263 0.345995 -0.254943 0.902935 255 255 255 255 
-0.0529544 -0.0419316 0.0920604 0.127671 0.556172 0.821202 255 255 255 255 
0.0865105 0.00769225 0.00423599 -0.142136 0.504535 -0.851611 255 255 255 255 
0.125421 -0.194947 -0.0301913 0.755713 -0.202465 -0.62282 255 255 255 255 
0.180812 0.0162914 0.0663858 0.705044 0.329116 0.628169 255 255 255 255 
-0.0932529 -0.131917 0.143962 -0.412887 -0.0176508 0.910611 255 255 255 255 
0.206965 -0.238392 -0.173864 -0.0224537 -0.772779 0.634278 255 255 255 255 
0.147704 0.335277 0.0522087 0.105817 0.23373 -0.966526 255 255 255 255 
-0.144018 -0.0592154 -0.0593142 -0.69883 0.497684 -0.513758 255 255 255 255 
0.216387 -0.185089 -0.194032 -0.197218 0.553802 -0.808955 255 255 255 255 
-0.145402 -0.0290744 0.00851106 -0.705931 0.705772 -0.0595582 255 255 255 255 
-0.0619636 -0.321881 -0.041908 0.965893 -0.17081 -0.194615 255 255 255 255 
-0.11631 -0.223173 -0.0369624 -0.688508 -0.341953 -0.639551 255 255 255 255 
0.170572 0.0132526 0.0119673 0.862729 -0.375666 -0.338488 255 255 255 255 
0.0682606 0.0460427 0.0451147 -0.663462 0.601562 -0.444907 255 255 255 255 
-0.101627 -0.353443 -0.054954 0.0461603 -0.913367 -0.404513 255 255 255 255 
0.128668 -0.0526218 0.153579 0.548425 0.420479 0.722792 255 255 255 255 
0.187497 -0.0537131 0.108691 0.653833 0.334377 0.678745 255 255 255 255 
0.180426 -0.137737 -0.114848 0.681691 0.724932 0.0988453 255 255 255 255 
-0.0698368 -0.0498941 0.103715 0.169104 0.557224 0.812961 255 255 255 255 
0.0550017 -0.246436 -0.0235015 -0.979952 -0.14532 0.136294 255 255 255 255 
0.112018 -0.101687 0.159915 -0.531078 -0.567978 -0.628775 255 255 255 255 
0.128074 -0.0195413 -0.012953 0.295015 0.485045 -0.823224 255 255 255 255 
-0.108906 -0.0345398 0.104075 -0.09621 0.560659 0.822438 255 255 255 255 
0.084252 0.0800764 0.0962664 -0.634944 0.14749 0.758349 255 255 255 255 
-0.20286 -0.221703 -0.0665662 -0.0214767 -0.704318 0.70956 255 255 255 255 
-0.0985156 -0.120541 -0.11122 -0.237998 0.282546 -0.92926 255 255 255 255 
-0.0868905 -0.280251 0.0352789 -0.297386 -0.730401 0.614878 255 255 255 255 
-0.191247 -0.153963 0.0531353 -0.865419 -0.1597 0.474917 255 255 255 255 
-0.0281336 -0.133694 0.129792 0.522354 0.212391 0.825855 255 255 255 255 
-0.089055 -0.0116906 -0.00499413 0.151979 0.983751 -0.095588 255 255 255 255 
0.122018 0.320344 0.152199 -0.00882807 0.783507 0.621321 255 255 255 255 
-0.184996 -0.118519 -0.05708 -0.836532 0.2943 -0.46217 255 255 255 255 
0.0303014 -0.224395 0.0477121 0.636531 -0.711932 0.296618 255 255 255 255 
-0.145774 -0.233249 -0.0754983 0.285628 -0.874737 0.391473 255 255 255 255 
0.0269379 -0.221897 -0.0266729 0.385782 -0.844716 -0.370983 255 255 255 255 
0.125587 0.303004 0.162178 0.488268 0.302917 0.818435 255 255 255 255 
0.0573525 -0.00866316 -0.0111882 -0.119648 0.768661 -0.628366 255 255 255 255 
0.00565463 -0.033078 -0.0268072 -0.254403 0.759617 -0.59855 255 255 255 255 
-0.0148858 -0.130845 0.116514 0.54318 0.179854 0.820127 255 255 255 255 
-0.0324102 -0.0432462 0.0933602 0.0847797 0.861815 0.500087 255 255 255 255 
0.0700288 0.0637076 0.0828469 -0.839429 0.255842 0.479484 255 255 255 255 
0.125255 0.171683 0.121372 -0.863374 -0.444613 0.238548 255 255 255 255 
0.206302 -0.0574934 0.0554628 -0.315643 -0.531762 -0.785875 255 255 255 255 
0.0398443 -0.0659018 -0.0679559 -0.139771 0.643901 -0.752233 255 255 255 255 
0.118044 -0.257871 -0.0346596 0.821457 0.000843788 -0.57027 255 255 255 255 
0.102832 -0.0118362 0.0958014 0.0751973 -0.18195 0.980428 255 255 255 255 
0.0477175 0.0324123 -0.0926063 0.0339016 0.793645 -0.607435 255 255 255 255 
0.120988 -0.199549 0.0181847 0.628094 -0.345654 0.697152 255 255 255 255 
0.0684771 0.0554027 0.0210677 -0.373308 0.666138 -0.645679 255 255 255 255 
-0.132643 -0.0647516 -0.0771474 -0.609271 0.453552 -0.650445 255 255 255 255 
0.149506 0.196642 0.0636858 0.906048 0.373624 0.198701 255 255 255 255 
-0.216997 -0.201317 -0.117066 -0.47691 0.498866 -0.723664 255 255 255 255 
0.107156 -0.0927725 0.156644 -0.537862 -0.545846 -0.642461 255 255 255 255 
0.0386515 -0.140972 -0.103208 0.104549 -0.222473 -0.969317 255 255 255 255 
-0.0201488 -0.104247 -0.107267 0.315901 0.489156 -0.812978 255 255 255 255 
-0.0471013 -0.0297688 4.76399e-005 -0.00769145 0.973232 -0.229695 255 255 255 255 
-0.255892 -0.284413 -0.15261 -0.862814 0.491225 -0.119373 255 255 255 255 
-0.0604622 -0.188242 -0.110202 0.106375 -0.567424 -0.816526 255 255 255 255 
-0.0207338 0.0627475 -0.0512082 0.00178918 0.846071 -0.533067 255 255 255 255 
0.150947 -0.0708901 -0.0279309 0.555052 0.472653 -0.684483 255 255 255 255 
0.132 0.241428 0.111134 0.776633 0.579997 -0.245856 255 255 255 255 
-0.0505364 -0.250031 -0.0446145 0.336759 -0.754626 -0.563145 255 255 255 255 
-0.155852 -0.0457108 0.0769658 -0.814285 0.488304 0.313847 255 255 255 255 
-0.0253246 -0.00731868 0.0654129 -0.402773 0.875481 -0.267032 255 255 255 255 
0.10088 -0.182136 -0.0787936 -0.0756379 -0.98684 -0.142921 255 255 255 255 
0.0947935 -0.209034 0.0328097 0.517406 -0.383474 0.765009 255 255 255 255 
0.15331 0.00537236 0.00456998 0.528103 0.192742 -0.827017 255 255 255 255 
-0.164935 -0.243211 -0.136062 0.477214 -0.266742 -0.837326 255 255 255 255 
0.239627 -0.222959 -0.214318 0.0932675 -0.810508 -0.578254 255 255 255 255 
0.145948 0.153552 0.0393565 -0.924159 -0.310767 -0.222159 255 255 255 255 
0.113243 0.322465 0.112685 -0.885459 0.352462 -0.302875 255 255 255 255 
0.0762759 0.0764527 0.0454611 -0.746578 0.575401 -0.333969 255 255 255 255 
0.0155067 -0.114919 0.100869 0.220754 -0.104232 0.969744 255 255 255 255 
-0.0914583 -0.16596 -0.12387 0.0378582 -0.0294309 -0.99885 255 255 255 255 
-0.211962 -0.268669 -0.159371 0.331404 0.81186 -0.480681 255 255 255 255 
0.139045 0.220541 0.157372 -0.241303 -0.513801 0.823275 255 255 255 255 
0.121426 0.323717 0.0927962 -0.933298 0.347172 -0.0917928 255 255 255 255 
-0.19327 -0.247526 -0.0826225 0.0496867 -0.656592 0.752608 255 255 255 255 
0.0763321 -0.216711 -0.0507123 -0.172394 0.19766 -0.964993 255 255 255 255 
0.0635569 0.0192088 0.0220019 -0.470709 0.684922 -0.556161 255 255 255 255 
0.0990427 0.250106 0.164379 -0.245146 -0.248082 0.937208 255 255 255 255 
0.0809818 0.0125871 -0.0611762 -0.162707 -0.905502 0.391909 255 255 255 255 
-0.00779229 -0.0156071 0.101904 -0.139242 0.309839 0.940538 255 255 255 255 
0.209891 0.0705882 0.0774812 0.984559 -0.165142 -0.0580597 255 255 255 255 
-0.165373 -0.158669 -0.100369 -0.556622 0.363775 -0.746886 255 255 255 255 
0.0294855 -0.00806211 -0.00309713 -0.235499 0.809325 -0.538083 255 255 255 255 
-0.00476029 0.00466319 0.0604529 -0.407589 0.856024 -0.317951 255 255 255 255 
-0.162615 -0.0553047 -0.0125878 -0.801608 0.566993 -0.189588 255 255 255 255 
-0.0529986 -0.105812 0.13351 0.346853 0.390617 0.852709 255 255 255 255 
0.107989 -0.120442 -0.125142 0.0500959 0.695792 -0.716494 255 255 255 255 
-0.110246 -0.309705 -0.00963649 -0.648638 -0.467814 0.600349 255 255 255 255 
0.167972 -0.0562613 0.126154 0.614229 0.349945 0.707291 255 255 255 255 
-0.0936677 -0.323548 -0.0684899 -0.181954 0.262895 -0.947512 255 255 255 255 
0.142534 -0.0618895 -0.0299244 0.518788 0.479293 -0.707911 255 255 255 255 
0.15385 -0.014356 0.110396 0.557785 0.393687 0.730676 255 255 255 255 
-0.0361344 -0.0810136 0.10986 0.286631 0.380239 0.879353 255 255 255 255 
0.0391487 0.0336231 -0.0308824 -0.177092 -0.890633 0.41882 255 255 255 255 
-0.122939 -0.230611 -0.0898562 0.330942 -0.908067 0.256694 255 255 255 255 
0.0657239 0.00361422 -0.0993965 -0.253605 -0.962482 0.0965011 255 255 255 255 
-0.0879227 -0.0424127 -0.0892756 -0.0836182 0.591664 -0.801837 255 255 255 255 
-0.245574 -0.317581 -0.142202 0.0696477 -0.899898 -0.430503 255 255 255 255 
-0.118511 -0.291623 -0.0099694 -0.860109 -0.366119 0.355203 255 255 255 255 
0.0504037 -0.0560949 -0.0626042 -0.0954541 0.669414 -0.736731 255 255 255 255 
0.120401 0.33632 0.0525923 -0.537483 -0.721846 -0.435947 255 255 255 255 
0.12468 -0.175537 0.0269328 0.635249 -0.346285 0.690323 255 255 255 255 
0.0295738 -0.0692217 -0.0675957 -0.16474 0.633735 -0.755804 255 255 255 255 
0.143885 0.0374049 -0.0458957 0.313678 0.864937 -0.391778 255 255 255 255 
0.127442 0.040303 0.105528 0.161741 -0.113742 0.980256 255 255 255 255 
0.0515764 -0.208817 -0.0461669 0.18716 -0.786903 -0.58801 255 255 255 255 
0.153003 -0.129455 0.009271 0.945511 -0.272754 0.177802 255 255 255 255 
-0.0550145 -0.0237696 0.0376131 -0.0714453 0.997404 -0.00902625 255 255 255 255 
0.126536 0.232582 0.164737 -0.212809 -0.329274 0.919941 255 255 255 255 
0.122429 -0.184976 -0.0858166 -0.10697 -0.99423 0.0079833 255 255 255 255 
-0.0788274 -0.357966 -0.0424831 0.0496238 -0.919982 -0.388806 255 255 255 255 
0.0734271 -0.0572824 -0.0648568 0.0386157 0.691519 -0.721325 255 255 255 255 
-0.0186872 -0.151547 -0.117308 0.152253 -0.119078 -0.981142 255 255 255 255 
0.201757 0.0336439 0.0611384 0.796165 -0.571202 -0.199624 255 255 255 255 
0.162405 -0.190075 -0.10555 0.0846501 -0.854732 0.512121 255 255 255 255 
-0.14449 -0.212849 -0.0287641 -0.719787 -0.687723 -0.0945673 255 255 255 255 
0.188736 -0.194328 -0.117104 0.119697 -0.786786 0.605509 255 255 255 255 
0.0527036 -0.0405228 0.205501 0.531469 0.470438 0.704435 255 255 255 255 
0.151051 0.0567409 -0.0127086 -0.126654 0.320284 -0.938817 255 255 255 255 
0.012618 0.0312406 -0.0471305 -0.196911 -0.897663 0.394243 255 255 255 255 
0.0847567 -0.0110759 -0.0146461 0.00799678 0.680396 -0.732801 255 255 255 255 
0.117299 0.176549 0.0938256 -0.948862 -0.160966 -0.27157 255 255 255 255 
0.0044441 -0.222474 -0.0482962 0.37263 -0.809073 -0.454475 255 255 255 255 
-0.141089 -0.0413237 -0.0477938 -0.714984 0.554851 -0.425368 255 255 255 255 
0.198365 0.110965 0.0821323 0.818031 0.498055 -0.287692 255 255 255 255 
0.0861892 0.0614325 0.0986276 -0.409638 0.223739 0.884386 255 255 255 255 
0.157917 0.18825 0.0442649 0.901822 0.360115 0.238816 255 255 255 255 
-0.00738959 -0.00639305 0.0363474 -0.396609 0.85455 -0.335329 255 255 255 255 
0.139451 -0.160615 -0.0564112 0.470262 -0.653004 0.593666 255 255 255 255 
0.1433 0.0102038 -0.0450328 -0.156337 -0.896503 0.414536 255 255 255 255 
0.145806 -0.103009 0.040615 0.743533 -0.313709 0.590546 255 255 255 255 
-0.0168305 -0.164362 -0.114744 0.151106 -0.245529 -0.95754 255 255 255 255 
0.120221 -0.168187 -0.146086 -0.404495 0.0353136 -0.913858 255 255 255 255 
-0.0543251 -0.0513599 0.102796 0.177044 0.690854 0.700982 255 255 255 255 
-0.0287564 -0.232694 -0.0571349 0.298402 -0.777672 -0.553337 255 255 255 255 
-0.0233586 -0.0471366 -0.0451769 0.43692 0.815836 -0.378829 255 255 255 255 
-0.0317472 -0.174492 -0.114562 0.110904 -0.328407 -0.938003 255 255 255 255 
-0.121702 -0.34266 -0.0406072 -0.981088 -0.188301 0.0448202 255 255 255 255 
0.180419 0.16827 0.127821 -0.870227 -0.456631 -0.184912 255 255 255 255 
0.13292 -0.100743 0.0555773 0.644674 -0.316197 0.695999 255 255 255 255 
-0.20933 -0.296751 -0.17381 0.0957923 -0.832491 -0.545694 255 255 255 255 
0.102992 -0.0850788 -0.0890401 0.240487 0.722893 -0.647759 255 255 255 255 
-0.16113 -0.0623699 -0.0331953 -0.771238 0.530633 -0.351598 255 255 255 255 
-0.176311 -0.19567 0.018614 -0.774295 -0.623672 0.107244 255 255 255 255 
-0.0614917 -0.0242904 0.061765 0.104855 0.961485 0.254069 255 255 255 255 
-0.113724 -0.057414 0.114895 -0.147048 0.441194 0.885282 255 255 255 255 
0.239382 -0.187906 -0.153228 0.838252 0.181304 0.514259 255 255 255 255 
0.133245 0.00360375 0.113045 0.506239 0.388626 0.769865 255 255 255 255 
0.120632 -0.210491 -0.0326513 0.786284 -0.163873 -0.595738 255 255 255 255 
-0.0655595 -0.359718 -0.0366581 0.0550286 -0.923179 -0.38041 255 255 255 255 
-0.0504461 -0.198827 0.136685 -0.228971 -0.5947 0.770652 255 255 255 255 
-0.0397871 -0.0629465 0.102567 0.119359 0.399926 0.908742 255 255 255 255 
0.106259 -0.292521 -0.0534727 0.799824 0.0954366 -0.592599 255 255 255 255 
-0.170933 -0.219387 -0.143248 0.278773 0.00584459 -0.960339 255 255 255 255 
0.206952 0.0769711 0.0998938 0.626065 -0.712577 0.316664 255 255 255 255 
0.163864 -0.0822591 0.0118402 0.981856 -0.189613 -0.00225554 255 255 255 255 
0.0324843 -0.227094 -0.00161955 0.471411 -0.858905 -0.200134 255 255 255 255 
0.0527472 -0.0535961 0.214456 0.529735 0.447973 0.720209 255 255 255 255 
-0.130386 -0.146362 0.120713 -0.473944 -0.203551 0.856705 255 255 255 255 
-0.000302333 -0.100159 -0.0905723 0.223203 0.569918 -0.790806 255 255 255 255 
-0.169003 -0.262711 -0.114745 0.464823 -0.81859 0.337416 255 255 255 255 
0.156334 0.149292 0.00311734 -0.923091 -0.311605 -0.225401 255 255 255 255 
-0.15848 -0.206694 -0.139451 -0.19935 0.373913 -0.905786 255 255 255 255 
-0.050058 -0.162122 0.149556 0.435001 -0.00652544 0.900406 255 255 255 255 
-0.135799 -0.23145 -0.0790807 0.290834 -0.892897 0.343729 255 255 255 255 
0.00467367 0.0739758 -0.0154838 0.083451 0.939367 -0.332603 255 255 255 255 
0.0790124 0.00273335 -0.0839277 -0.202457 -0.942936 0.264352 255 255 255 255 
0.00880601 -0.199853 0.0969282 0.635864 -0.250243 0.730107 255 255 255 255 
0.0488242 -0.00297886 -0.00337203 -0.179826 0.792153 -0.583229 255 255 255 255 
0.0596449 -0.269764 -0.0119594 -0.91023 -0.208234 0.357937 255 255 255 255 
0.0413765 -0.214479 -0.0372146 0.269263 -0.827134 -0.493303 255 255 255 255 
0.20686 0.134001 0.143844 -0.565762 -0.507145 0.650167 255 255 255 255 
0.152455 0.0815672 0.11246 0.0325425 -0.178034 0.983486 255 255 255 255 
0.0688986 -0.306924 -0.0737373 -0.48545 0.055578 -0.872496 255 255 255 255 
0.124082 0.252285 0.110608 0.717617 0.648495 -0.25393 255 255 255 255 
0.0973718 -0.179492 -0.106847 -0.352668 -0.868063 -0.349416 255 255 255 255 
-0.00239979 -0.201174 0.107978 0.609993 -0.256562 0.749722 255 255 255 255 
0.0866961 -0.002322 -0.100641 -0.233629 -0.965293 0.116739 255 255 255 255 
0.152313 -0.0388922 0.127648 0.565944 0.407094 0.716925 255 255 255 255 
0.0775471 0.0117522 0.119563 -0.0387524 0.518536 0.854177 255 255 255 255 
0.022791 -0.199048 0.0812984 0.641649 -0.29077 0.709746 255 255 255 255 
-0.0326428 -0.126861 -0.12084 0.112707 0.136924 -0.984149 255 255 255 255 
-0.0494716 -0.0749302 0.112047 0.241376 0.450948 0.859293 255 255 255 255 
0.179209 0.136796 0.00991037 0.916144 0.36611 -0.163232 255 255 255 255 
0.18084 -0.0227904 0.0446992 -0.227644 -0.569151 -0.790092 255 255 255 255 
0.0931281 -0.0747553 0.194416 0.56481 0.357309 0.743855 255 255 255 255 
0.0951856 -0.250284 0.0149294 0.345589 -0.424614 0.836822 255 255 255 255 
0.109419 -0.129224 0.0620742 0.551762 -0.333433 0.764448 255 255 255 255 
-0.0953626 -0.020955 0.0834442 0.111614 0.910876 0.397299 255 255 255 255 
0.0114703 -0.0677105 -0.0611882 -0.18911 0.640995 -0.743884 255 255 255 255 
0.185414 0.0352633 0.0232793 0.857341 -0.364407 -0.363557 255 255 255 255 
-0.151793 -0.183264 0.0987222 -0.575631 -0.351014 0.738538 255 255 255 255 
0.106143 0.052855 -0.017271 0.0404209 0.816103 -0.576491 255 255 255 255 
0.164652 0.0341439 -0.0300419 0.717986 0.650494 -0.247698 255 255 255 255 
0.028656 0.00795871 0.0277495 -0.347214 0.837312 -0.422317 255 255 255 255 
0.102333 -0.00370341 -0.0874546 -0.19664 -0.947994 0.250282 255 255 255 255 
0.106243 0.311157 0.116167 -0.882925 0.356198 -0.305887 255 255 255 255 
-0.115948 -0.241479 -0.0289504 -0.698395 -0.181223 -0.692389 255 255 255 255 
0.0564625 0.0565252 0.0266669 -0.708061 -0.511173 0.487187 255 255 255 255 
-0.181538 -0.175018 0.0599676 -0.83399 -0.346588 0.429346 255 255 255 255 
-0.110822 -0.324803 -0.0626166 -0.261462 0.245375 -0.933503 255 255 255 255 
0.122356 -0.240078 -0.0274178 0.847654 -0.0767268 -0.524973 255 255 255 255 
-0.198443 -0.199993 -0.126092 -0.455018 0.462445 -0.760988 255 255 255 255 
0.0653017 -0.286495 -0.0659543 -0.501706 0.163201 -0.849504 255 255 255 255 
0.110003 -0.0442469 -0.0394357 0.310453 0.619922 -0.720636 255 255 255 255 
0.157682 0.169291 -0.0012967 -0.313426 0.130323 -0.940628 255 255 255 255 
-0.0245924 0.0681449 -0.0426136 -0.0125443 0.849881 -0.526825 255 255 255 255 
-0.0937108 -0.0456688 0.109495 0.0306061 0.546792 0.836709 255 255 255 255 
0.0957126 -0.052963 0.138902 -0.563196 -0.481425 -0.671595 255 255 255 255 
0.141857 0.0679744 0.1105 0.079527 -0.205975 0.97532 255 255 255 255 
0.157639 -0.195475 -0.114634 0.0516934 -0.869143 0.491852 255 255 255 255 
0.121436 0.0629549 0.109973 0.0700979 -0.147845 0.986523 255 255 255 255 
-0.21949 -0.226668 -0.100241 -0.992029 0.0700378 0.104753 255 255 255 255 
0.0936451 0.251732 0.103278 -0.929925 -0.0618129 -0.362517 255 255 255 255 
0.0560787 -0.166545 0.0718719 0.384295 -0.422158 0.821036 255 255 255 255 
0.118331 -0.0671459 -0.0550652 0.435523 0.637633 -0.635409 255 255 255 255 
0.104136 -0.310506 -0.0690206 0.175602 0.317157 -0.931974 255 255 255 255 
-0.0781458 -0.0243278 -0.0588717 0.298369 0.895381 -0.330557 255 255 255 255 
0.069966 -0.0627175 0.207213 0.540747 0.422302 0.727498 255 255 255 255 
-0.0099543 -0.121437 -0.11075 0.288846 0.463159 -0.837885 255 255 255 255 
-0.144758 -0.221993 0.00244717 -0.785415 -0.569167 -0.243252 255 255 255 255 
0.0700977 -0.0525601 0.159173 -0.564986 -0.468305 -0.679324 255 255 255 255 
0.0927777 -0.0935143 0.202655 0.570934 0.319516 0.75627 255 255 255 255 
-0.148953 -0.0604409 0.101899 -0.801238 0.35146 0.484245 255 255 255 255 
-0.0209163 -0.105649 0.110405 0.378793 0.210482 0.901229 255 255 255 255 
0.172262 0.0424977 -0.0124375 0.863685 -0.362984 -0.349701 255 255 255 255 
0.0598667 -0.104302 -0.103058 -0.170758 0.576928 -0.798746 255 255 255 255 
0.11743 -0.234984 -0.0359513 0.789728 -0.0547491 -0.611009 255 255 255 255 
0.196258 -0.149381 -0.12272 0.670223 0.729243 0.137862 255 255 255 255 
0.00521074 -0.166222 0.105144 0.640545 -0.0607061 0.765517 255 255 255 255 
0.151452 -0.112203 0.0270797 0.827266 -0.300263 0.47484 255 255 255 255 
0.0917938 -0.150337 -0.133109 -0.491139 -0.259492 -0.831532 255 255 255 255 
0.0262915 0.0356695 -0.0314173 -0.184938 -0.889238 0.418394 255 255 255 255 
-0.125641 -0.0984598 -0.0957923 -0.405336 0.363835 -0.838646 255 255 255 255 
0.115485 0.140418 0.112053 -0.204552 -0.0515658 0.977497 255 255 255 255 
-0.119898 -0.255321 -0.0196756 -0.749578 -0.215625 -0.62581 255 255 255 255 
0.0873951 0.0187443 0.00429009 -0.215038 0.592469 -0.776363 255 255 255 255 
-0.0106351 -0.258208 0.0451301 0.568186 -0.817818 0.0913182 255 255 255 255 
-0.0687167 -0.312306 -0.0590618 0.905194 -0.0591182 -0.420866 255 255 255 255 
0.163719 0.0380968 0.0985231 0.266184 -0.359689 0.894299 255 255 255 255 
0.175092 -0.00391593 0.0861532 0.645654 0.365647 0.670398 255 255 255 255 
0.137897 0.0809748 -0.00272874 -0.251102 0.41817 -0.872973 255 255 255 255 
0.038959 -0.084053 -0.08081 -0.139577 0.609128 -0.780693 255 255 255 255 
-0.115391 -0.120596 0.13254 -0.449174 0.00361457 0.893437 255 255 255 255 
-0.0883516 -0.0149233 0.0505318 0.0891832 0.983411 0.157955 255 255 255 255 
0.166391 0.0289618 -0.0391189 0.70039 0.667449 -0.252914 255 255 255 255 
0.150832 0.0112314 -0.0996373 0.331219 0.796776 -0.505413 255 255 255 255 
0.0506537 -0.178262 0.0667776 0.443946 -0.43405 0.783908 255 255 255 255 
-0.0568163 -0.0838858 0.121136 0.25659 0.45642 0.851964 255 255 255 255 
0.090428 0.0364612 -0.00269878 -0.19603 0.633091 -0.748845 255 255 255 255 
-0.0613731 -0.166363 -0.120423 0.069141 -0.278065 -0.958071 255 255 255 255 
0.0666952 -0.15347 -0.112163 -0.44579 -0.540627 -0.713438 255 255 255 255 
-0.136315 -0.0501591 0.106492 -0.212648 0.44641 0.869195 255 255 255 255 
-0.245819 -0.279793 -0.169738 -0.429732 0.521924 -0.736835 255 255 255 255 
0.0975132 -0.216764 -0.0493646 0.510747 0.0481554 -0.858381 255 255 255 255 
0.0553767 -0.012275 0.149712 -0.733643 -0.290014 -0.61454 255 255 255 255 
0.0863185 0.0995247 0.0574625 -0.90008 0.380186 -0.212873 255 255 255 255 
-0.162422 -0.0525773 -0.00270718 -0.805161 0.578519 -0.130503 255 255 255 255 
0.156673 -0.0556113 0.0555701 0.830034 -0.332222 0.447965 255 255 255 255 
0.0160955 -0.00724678 0.00636948 -0.297763 0.828717 -0.473884 255 255 255 255 
0.195907 -0.217273 -0.20064 -0.937097 0.0646207 -0.343035 255 255 255 255 
-0.163688 -0.199892 -0.0410011 -0.797399 -0.603422 0.00609233 255 255 255 255 
0.167577 0.181894 0.116801 0.886686 0.452637 -0.0943797 255 255 255 255 
0.213026 -0.0846176 0.0960536 0.703129 0.248562 0.666203 255 255 255 255 
0.163444 -0.160831 -0.0782382 0.603271 -0.408965 0.684698 255 255 255 255 
-0.102808 -0.0683783 -0.0985947 -0.274685 0.408806 -0.870302 255 255 255 255 
0.135956 0.199272 0.020181 -0.920411 -0.306842 -0.242264 255 255 255 255 
0.0237239 -0.162869 -0.101482 0.151096 -0.235101 -0.960155 255 255 255 255 
-0.0501469 -0.0447276 -0.0744933 0.41408 0.800996 -0.43237 255 255 255 255 
0.219519 -0.241304 -0.185459 0.0338307 -0.860447 -0.508415 255 255 255 255 
-0.0383748 -0.267136 -0.0129775 0.647606 -0.683486 -0.336828 255 255 255 255 
-0.188097 -0.109661 0.055744 -0.903704 0.268269 0.333692 255 255 255 255 
0.167029 0.141923 -0.00269869 -0.202846 -0.0847977 -0.975532 255 255 255 255 
0.108341 0.105111 0.0268309 -0.459226 0.591172 -0.663044 255 255 255 255 
0.012007 -0.156927 -0.106544 0.175942 -0.183539 -0.967139 255 255 255 255 
-0.0929503 -0.217666 -0.0793435 0.292565 -0.95548 -0.0382459 255 255 255 255 
-0.11368 -0.0107424 -0.00869717 -0.0658982 0.994566 -0.080592 255 255 255 255 
0.131312 0.222684 0.0931735 -0.0817914 0.277886 -0.957126 255 255 255 255 
-0.079974 -0.0742578 0.122336 0.138849 0.492627 0.859093 255 255 255 255 
0.199159 0.0398451 0.0463008 0.85733 -0.395323 -0.329706 255 255 255 255 
0.119439 0.154635 0.0871562 -0.965115 0.260964 0.0212167 255 255 255 255 
0.150105 -0.0717698 0.0531349 0.728692 -0.324653 0.603 255 255 255 255 
-0.0864735 -0.266581 -0.0512485 -0.475895 0.0796779 -0.875885 255 255 255 255 
0.0552329 -0.00935896 0.1663 -0.748416 0.646725 0.147038 255 255 255 255 
0.041567 -0.0378719 -0.0451633 -0.132879 0.709604 -0.691957 255 255 255 255 
-0.182737 -0.184265 0.043703 -0.812468 -0.527855 0.247519 255 255 255 255 
-0.0768264 -0.130517 -0.118565 -0.135152 0.213082 -0.967641 255 255 255 255 
-0.21791 -0.209929 -0.0862508 -0.996321 0.0564712 0.0644596 255 255 255 255 
0.137582 -0.0901047 0.056575 0.654621 -0.315841 0.686815 255 255 255 255 
0.107822 0.132274 0.080889 -0.95024 0.311512 -0.00213168 255 255 255 255 
0.0893374 0.0429984 0.10723 0.115463 0.387491 0.914614 255 255 255 255 
0.0777834 -0.348898 -0.029238 -0.0579163 -0.940927 -0.333618 255 255 255 255 
-0.0329962 -0.167015 0.140033 0.510394 -0.0301588 0.859412 255 255 255 255 
0.108923 -0.0091951 -0.00987628 0.0864935 0.563971 -0.821253 255 255 255 255 
0.0876168 0.106701 0.0784146 -0.930209 0.338285 -0.142387 255 255 255 255 
0.0495914 0.0308144 0.0596315 -0.437513 0.832999 -0.338668 255 255 255 255 
-0.0178536 -0.092156 0.106135 0.260448 0.184725 0.947652 255 255 255 255 
0.229171 0.129461 0.134476 0.6763 -0.251822 0.692245 255 255 255 255 
-0.00237555 0.0250942 -0.0733363 -0.247078 -0.931478 0.267023 255 255 255 255 
0.162554 -0.0526562 0.0746169 -0.357119 -0.552224 -0.753336 255 255 255 255 
0.123014 0.120094 0.0274426 -0.500936 0.593508 -0.62993 255 255 255 255 
0.106268 -0.167093 -0.135468 -0.502522 -0.492284 -0.710724 255 255 255 255 
-0.157603 -0.214713 0.0647283 -0.76608 -0.595528 0.241801 255 255 255 255 
-0.153038 -0.03519 0.0309722 -0.742679 0.6695 0.0140704 255 255 255 255 
0.219021 -0.223545 -0.21465 0.0379926 -0.83482 -0.54921 255 255 255 255 
-0.222314 -0.239909 -0.114033 -0.992178 0.101325 0.0729148 255 255 255 255 
0.170044 -0.00921476 0.0166058 0.598975 0.133487 -0.789564 255 255 255 255 
0.17566 0.148035 0.0465144 0.898957 0.433797 -0.0608019 255 255 255 255 
0.125449 -0.0473094 0.112192 -0.581368 -0.52423 -0.622249 255 255 255 255 
0.160646 -0.0991292 0.0101351 0.963934 -0.231361 0.131545 255 255 255 255 
0.162379 0.00837976 -0.0424746 -0.1454 -0.896046 0.419477 255 255 255 255 
-0.161325 -0.0456013 0.0383196 -0.799415 0.597879 0.0589555 255 255 255 255 
-0.158271 -0.118037 -0.0851339 -0.539079 0.38132 -0.750992 255 255 255 255 
0.0127058 -0.0175555 -0.00928306 -0.264052 0.806459 -0.529056 255 255 255 255 
0.067102 -0.227491 -0.0515477 -0.14177 0.198328 -0.969829 255 255 255 255 
0.137757 -0.168698 0.0151827 0.735588 -0.328156 0.592642 255 255 255 255 
-0.109013 -0.0103223 0.00745102 -0.0736187 0.996615 -0.0365879 255 255 255 255 
-0.0850826 -0.347526 -0.0651909 0.0480157 -0.906519 -0.419426 255 255 255 255 
0.0330469 -0.22396 -0.0122824 0.438439 -0.864115 -0.247135 255 255 255 255 
-0.185111 -0.125712 0.068727 -0.881879 0.0921549 0.462382 255 255 255 255 
-0.0735628 -0.272121 0.0503357 -0.110762 -0.775637 0.621385 255 255 255 255 
-0.179828 -0.151098 0.076059 -0.846141 -0.128096 0.517337 255 255 255 255 
-0.112452 -0.219246 -0.0585783 0.0618362 -0.994059 0.0895733 255 255 255 255 
-0.0697285 -0.329072 -0.00364855 -0.333384 -0.510872 0.792379 255 255 255 255 
0.0609052 -0.200565 -0.055512 0.158708 -0.758078 -0.632558 255 255 255 255 
-0.0977083 -0.272836 0.0389045 -0.348155 -0.73151 0.586244 255 255 255 255 
0.17761 0.0519905 0.101233 0.280197 -0.376708 0.882939 255 255 255 255 
0.00600382 0.0285597 -0.0565525 -0.207689 -0.906599 0.367347 255 255 255 255 
0.174972 0.15244 0.0834184 0.905936 0.423411 -0.00137751 255 255 255 255 
-0.251398 -0.312316 -0.152788 0.0237213 -0.855645 -0.517019 255 255 255 255 
-0.0984263 -0.258156 0.0585582 -0.313152 -0.736154 0.600011 255 255 255 255 
0.210591 -0.109796 0.0986925 0.797869 -0.534857 0.27809 255 255 255 255 
0.15428 0.194499 0.0932203 0.879269 0.460404 -0.122126 255 255 255 255 
-0.11838 -0.259353 0.0414423 -0.484845 -0.719804 0.496798 255 255 255 255 
0.141791 -0.12829 0.0327535 0.758723 -0.314655 0.570379 255 255 255 255 
0.0671518 -0.0255635 0.0993239 0.121964 0.0839404 0.988979 255 255 255 255 
0.120308 0.126343 0.0360688 -0.5187 0.620079 -0.588602 255 255 255 255 
0.14962 -0.128496 -0.127361 0.127944 0.751407 -0.647316 255 255 255 255 
0.0567765 -0.195172 -0.0632213 0.150307 -0.754618 -0.638717 255 255 255 255 
-0.194416 -0.187449 0.00443105 -0.0118422 -0.999661 0.0232039 255 255 255 255 
-0.109835 -0.138078 0.133973 -0.452001 -0.119183 0.884019 255 255 255 255 
0.224922 -0.0823704 0.0820536 0.725376 0.242346 0.644281 255 255 255 255 
0.220355 0.122617 0.102953 0.595285 0.40909 -0.691579 255 255 255 255 
-0.175626 -0.141378 0.0847367 -0.833199 -0.0491586 0.550784 255 255 255 255 
0.0503955 -0.0282266 -0.0360969 -0.096698 0.737648 -0.668225 255 255 255 255 
0.042736 -0.110029 -0.099791 -0.171508 0.542783 -0.822175 255 255 255 255 
-0.00567124 -0.0264828 0.104841 -0.0961859 0.251907 0.96296 255 255 255 255 
0.163473 -0.0878343 0.144069 0.623247 0.282188 0.729338 255 255 255 255 
-0.186123 -0.247897 -0.14631 0.538636 -0.183998 -0.822202 255 255 255 255 
0.161942 -0.176031 -0.165183 -0.351086 0.323355 -0.878738 255 255 255 255 
-0.132861 -0.133347 -0.106259 -0.383941 0.35465 -0.852533 255 255 255 255 
-0.161856 -0.121039 0.103685 -0.763124 0.0588471 0.643567 255 255 255 255 
0.198218 -0.0434997 0.0928442 0.672302 0.368009 0.642323 255 255 255 255 
-0.0622886 -0.312083 -0.0450092 0.945987 -0.134639 -0.294926 255 255 255 255 
0.0864228 0.00359104 -0.0765598 -0.188185 -0.932799 0.307364 255 255 255 255 
0.120328 -0.319676 -0.032634 0.671348 -0.110576 0.732847 255 255 255 255 
0.115668 -0.0410014 0.11648 -0.583724 -0.51806 -0.625203 255 255 255 255 
0.216915 -0.0944069 0.0950606 0.709158 0.234754 0.66482 255 255 255 255 
-0.0820549 -0.138817 -0.119983 -0.116733 0.185432 -0.975699 255 255 255 255 
-0.1978 -0.111612 -0.0147164 -0.892788 0.393105 -0.219998 255 255 255 255 
0.0860057 0.257114 0.158593 -0.952099 -0.178679 0.248155 255 255 255 255 
0.196281 -0.0168016 0.0712865 0.793919 0.511766 0.328312 255 255 255 255 
0.0718893 0.0341898 -0.0883869 0.0646466 0.813225 -0.578348 255 255 255 255 
-0.117019 -0.252279 0.0540984 -0.414429 -0.722648 0.553198 255 255 255 255 
0.193833 -0.193189 -0.184363 -0.707181 0.078393 -0.702673 255 255 255 255 
-0.0810014 -0.122189 -0.115878 -0.162906 0.23413 -0.95846 255 255 255 255 
0.189159 -0.030357 0.0927665 0.662947 0.398146 0.634019 255 255 255 255 
0.0887803 -0.194947 -0.055793 0.196489 -0.665143 -0.7204 255 255 255 255 
0.190661 0.0589495 0.100155 0.362926 -0.44037 0.821194 255 255 255 255 
-0.0826544 -0.337735 -0.0103672 -0.103387 -0.287212 0.952271 255 255 255 255 
0.18496 0.123103 0.0241578 0.89517 0.428606 -0.122343 255 255 255 255 
0.121969 0.200798 0.0699157 -0.935256 -0.268659 -0.230476 255 255 255 255 
0.0133455 -0.228384 -0.0263508 0.420106 -0.829826 -0.367288 255 255 255 255 
0.191787 -0.0129193 0.0418398 0.600034 0.058766 -0.797813 255 255 255 255 
0.257234 -0.209774 -0.205293 0.56414 0.591371 -0.576218 255 255 255 255 
0.0431365 -0.0903088 0.10448 0.19831 -0.128933 0.971622 255 255 255 255 
0.201853 -0.0331279 0.0508531 0.586112 0.0709208 -0.80712 255 255 255 255 
0.131743 0.17826 0.0594075 -0.936453 -0.261426 -0.233907 255 255 255 255 
0.0736941 -0.206862 0.0421416 0.419219 -0.449262 0.788935 255 255 255 255 
-0.138625 -0.176239 0.106807 -0.469172 -0.337503 0.81607 255 255 255 255 
0.151598 -0.137344 -0.0294507 0.952107 -0.304716 -0.0252988 255 255 255 255 
0.102858 -0.296629 -0.0123251 0.661224 -0.225815 0.715396 255 255 255 255 
-0.219167 -0.206778 -0.0986538 -0.998022 0.0528985 0.0339582 255 255 255 255 
0.17975 0.152969 0.112151 0.90266 0.429985 -0.017843 255 255 255 255 
-0.0669912 -0.245943 -0.059671 0.696629 -0.198933 -0.6893 255 255 255 255 
0.138585 0.190112 0.0213773 -0.921587 -0.314306 -0.227794 255 255 255 255 
-0.238618 -0.270522 -0.163699 -0.424016 0.58696 -0.689702 255 255 255 255 
0.136829 0.018226 0.103868 0.500052 0.322746 0.803606 255 255 255 255 
0.0808959 0.0262835 0.111458 -0.0745705 0.505853 0.859391 255 255 255 255 
0.000480665 -0.0480155 -0.040825 -0.245289 0.703158 -0.667385 255 255 255 255 
-0.112449 -0.200492 -0.127846 0.247862 -0.122222 -0.961055 255 255 255 255 
0.152296 -0.138138 -0.0132179 0.957138 -0.289362 0.0125128 255 255 255 255 
-0.164921 -0.164247 0.0955075 -0.744512 -0.211258 0.633302 255 255 255 255 
0.167716 -0.0462376 0.0402245 0.903571 -0.316555 0.288708 255 255 255 255 
0.122141 -0.189482 0.0222357 0.630468 -0.347192 0.694239 255 255 255 255 
-0.0385045 -0.276286 0.0112628 0.733765 -0.658905 -0.165629 255 255 255 255 
-0.0951575 -0.229325 -0.0481565 -0.576845 -0.190591 -0.794308 255 255 255 255 
-0.154084 -0.211168 0.00285781 -0.753229 -0.646846 -0.119321 255 255 255 255 
-0.151719 -0.130913 0.113392 -0.616466 -0.0508859 0.785736 255 255 255 255 
-0.0940725 -0.026004 0.0939164 0.107199 0.822047 0.559238 255 255 255 255 
0.138811 -0.074829 -0.0418611 0.541432 0.553102 -0.63319 255 255 255 255 
0.0944634 -0.0717744 0.152274 -0.553915 -0.496215 -0.668542 255 255 255 255 
0.166447 -0.0682314 0.0154214 0.965428 -0.237287 0.107902 255 255 255 255 
-0.116504 -0.338811 -0.0303034 -0.692078 -0.4133 0.591787 255 255 255 255 
-0.179497 -0.20211 -0.064072 -0.684146 0.13679 0.716402 255 255 255 255 
0.0571742 -0.154736 -0.104882 -0.398694 -0.512396 -0.760588 255 255 255 255 
-0.128126 -0.235671 -0.0995356 0.364223 -0.898686 0.244344 255 255 255 255 
-0.0660005 -0.0725906 -0.105756 -0.0292365 0.402072 -0.915141 255 255 255 255 
0.0670343 -0.0880455 -0.0924269 -0.103538 0.62884 -0.770611 255 255 255 255 
-0.024103 -0.189882 0.13007 0.51598 -0.238262 0.822798 255 255 255 255 
-0.0313792 -0.153167 -0.12002 0.114771 -0.128441 -0.985054 255 255 255 255 
-0.176928 -0.164692 0.0766359 -0.827798 -0.212821 0.519093 255 255 255 255 
0.19717 0.0657378 0.0227631 0.866719 -0.344863 -0.360371 255 255 255 255 
-0.00170927 -0.0984399 0.10285 0.254378 0.0763568 0.964086 255 255 255 255 
-0.202773 -0.259546 -0.153562 0.324952 0.0453451 -0.944643 255 255 255 255 
-0.163162 -0.146463 0.101629 -0.730704 -0.108289 0.674052 255 255 255 255 
0.19106 0.112221 0.0434776 0.878234 0.457999 -0.137633 255 255 255 255 
0.0965291 0.0173455 0.124969 0.415203 0.436081 0.798398 255 255 255 255 
0.145007 -0.155752 -0.0218368 0.932495 -0.337766 -0.127931 255 255 255 255 
-0.189884 -0.139074 -0.0558056 -0.87205 0.181603 -0.454477 255 255 255 255 
0.182253 0.0726703 0.107979 0.155066 -0.300148 0.941205 255 255 255 255 
0.132187 -0.189736 -0.125832 -0.433991 -0.818008 -0.377511 255 255 255 255 
0.116744 -0.188746 -0.0415619 0.725019 -0.192529 -0.661271 255 255 255 255 
0.078941 -0.0742313 0.098115 0.307744 -0.15926 0.938046 255 255 255 255 
0.11442 0.267744 0.171141 -0.0300735 -0.0567869 0.997933 255 255 255 255 
-0.085663 -0.0174212 0.0600251 0.0991236 0.973748 0.204914 255 255 255 255 
-0.23129 -0.303608 -0.16624 0.0680323 -0.851629 -0.519712 255 255 255 255 
0.0266328 0.0147377 0.0903207 -0.112284 0.446278 0.887822 255 255 255 255 
-0.0584261 -0.212286 0.121171 -0.260542 -0.641718 0.72133 255 255 255 255 
0.111788 -0.172231 0.0397204 0.567105 -0.362658 0.739508 255 255 255 255 
0.0802716 -0.103994 0.205422 -0.26342 -0.942873 0.203961 255 255 255 255 
0.167517 -0.124747 -0.104 0.820013 0.534493 0.204685 255 255 255 255 
-0.123386 -0.278084 -0.0258551 -0.63172 0.0166109 -0.775019 255 255 255 255 
-0.0194962 -0.25748 -0.00222016 0.573128 -0.768094 -0.28558 255 255 255 255 
-0.0394081 -0.0581545 -0.0845506 0.429974 0.718536 -0.546652 255 255 255 255 
-0.0685039 -0.210779 -0.0898178 0.159813 -0.772877 -0.614102 255 255 255 255 
0.120129 0.189593 0.135023 -0.0226992 -0.469897 0.882429 255 255 255 255 
-0.131064 -0.249528 0.0379541 -0.733571 -0.651074 0.194874 255 255 255 255 
0.234073 -0.225823 -0.158037 0.00264343 -0.763178 0.646182 255 255 255 255 
-0.171534 -0.195394 0.0630872 -0.816312 -0.475922 0.327312 255 255 255 255 
0.165225 0.172262 0.0808776 0.906043 0.423153 -0.00533403 255 255 255 255 
0.127086 -0.0841718 -0.0655771 0.517823 0.659156 -0.545319 255 255 255 255 
0.0703923 0.00540351 -0.000735021 -0.158888 0.717321 -0.678384 255 255 255 255 
0.0642086 -0.266966 0.00192345 -0.938947 -0.190378 0.286591 255 255 255 255 
-0.0476432 -0.0867313 -0.111118 0.0268092 0.357944 -0.933358 255 255 255 255 
-0.183055 -0.17169 -0.0969185 -0.570001 0.379744 -0.728625 255 255 255 255 
0.175123 0.0246943 0.087094 0.387598 -0.400217 0.830418 255 255 255 255 
0.0555279 -0.26436 -0.0283012 -0.979204 -0.128678 0.156846 255 255 255 255 
-0.0287931 -0.205852 -0.0905177 0.174873 -0.720142 -0.671428 255 255 255 255 
-0.200578 -0.238721 -0.0779629 0.0155488 -0.668653 0.743412 255 255 255 255 
-0.181458 -0.291934 -0.140837 0.450229 -0.725916 0.519942 255 255 255 255 
-0.124843 -0.211328 0.0939836 -0.388721 -0.564542 0.72814 255 255 255 255 
0.171993 0.120102 -0.00019436 -0.188371 -0.0535475 -0.980637 255 255 255 255 
0.0345097 -0.123358 0.0975905 0.255599 -0.210916 0.943495 255 255 255 255 
0.0641589 0.0658298 0.0345059 -0.460709 0.675367 -0.57587 255 255 255 255 
-0.118637 -0.279009 0.00140859 -0.861908 -0.406239 0.303455 255 255 255 255 
-0.136816 -0.233942 -0.0013874 -0.782944 -0.608293 -0.130304 255 255 255 255 
-0.0690445 -0.0287 -0.0612916 0.331277 0.873574 -0.356544 255 255 255 255 
0.144472 0.0945837 0.114663 -0.0345062 -0.12949 0.99098 255 255 255 255 
0.16134 0.101704 -0.000240712 0.117217 0.269463 -0.95585 255 255 255 255 
0.0288651 0.041288 -0.0187942 -0.182674 -0.880929 0.43657 255 255 255 255 
0.0299819 -0.0774398 0.106587 0.137501 -0.0412268 0.989643 255 255 255 255 
0.0911848 -0.17947 -0.0966259 -0.180264 -0.964892 -0.19102 255 255 255 255 
0.0745589 -0.251381 0.0188911 0.147356 -0.471752 0.869331 255 255 255 255 
0.0716957 -0.0275519 -0.0349686 0.013225 0.71848 -0.695422 255 255 255 255 
0.128839 -0.119466 -0.1212 0.150315 0.744671 -0.650285 255 255 255 255 
0.0931637 0.0627933 -0.00798544 0.0507164 0.871441 -0.487871 255 255 255 255 
-0.0703052 -0.310023 0.00994958 -0.338955 -0.605913 0.719708 255 255 255 255 
-0.162256 -0.0992349 0.0981972 -0.809021 0.182835 0.558621 255 255 255 255 
0.0209685 -0.0433015 -0.0442282 -0.210304 0.699651 -0.682833 255 255 255 255 
-0.0709907 -0.0184787 0.0471661 0.101596 0.983241 0.151379 255 255 255 255 
0.112074 -0.184606 -0.0555371 0.620168 -0.633449 -0.462746 255 255 255 255 
0.11043 -0.0587564 -0.0528258 0.363047 0.64775 -0.669789 255 255 255 255 
-0.0935296 -0.0117354 -0.0220583 0.150513 0.976964 -0.151283 255 255 255 255 
0.145202 -0.151613 -0.0309025 0.927565 -0.347604 -0.137091 255 255 255 255 
-0.0458695 -0.264924 -0.0287378 0.797765 -0.448228 -0.403314 255 255 255 255 
0.118415 0.159661 0.102783 -0.978243 -0.106405 -0.178098 255 255 255 255 
-0.186901 -0.182122 0.0336829 -0.803528 -0.545807 0.237564 255 255 255 255 
0.122817 -0.010166 -0.00859938 0.167398 0.474405 -0.864244 255 255 255 255 
-0.0866315 -0.01192 0.0104331 0.104391 0.993936 -0.0345464 255 255 255 255 
-0.192165 -0.2228 -0.0587454 0.102221 -0.844255 0.526103 255 255 255 255 
-0.0984293 -0.255177 -0.0429451 -0.553569 -0.00947144 -0.832749 255 255 255 255 
0.103145 -0.1663 0.0488579 0.526563 -0.372503 0.764181 255 255 255 255 
0.250207 -0.215858 -0.166995 0.80478 -0.0578195 0.590751 255 255 255 255 
0.157104 -0.118421 -0.0267333 0.970985 -0.238436 -0.0183609 255 255 255 255 
-0.12833 -0.0130248 0.0535302 -0.597746 0.798397 0.0725332 255 255 255 255 
0.122907 -0.22564 0.00352235 0.669678 -0.335189 0.662706 255 255 255 255 
0.0594973 0.0406821 0.0622403 -0.733972 0.59743 -0.323052 255 255 255 255 
-0.0307161 -0.154351 0.138038 0.528053 0.0607205 0.847038 255 255 255 255 
-0.086069 -0.224112 -0.0646646 0.100983 -0.922828 -0.371741 255 255 255 255 
-0.143455 -0.205736 0.0903432 -0.474672 -0.515286 0.71356 255 255 255 255 
0.193654 0.0312359 0.0429459 0.844384 -0.433009 -0.315467 255 255 255 255 
-0.0493072 -0.28795 -7.03368e-005 0.826939 -0.538185 -0.162874 255 255 255 255 
0.0974429 -0.0348618 -0.0362364 0.200625 0.656501 -0.727156 255 255 255 255 
-0.0393582 -0.233118 -0.0602825 0.21913 -0.772319 -0.596242 255 255 255 255 
-0.103659 -0.0812622 -0.101489 -0.281529 0.358179 -0.890196 255 255 255 255 
-0.156886 -0.048805 -0.0209643 -0.780518 0.572456 -0.251168 255 255 255 255 
-0.0597062 -0.237456 -0.058434 0.193221 -0.785209 -0.588313 255 255 255 255 
0.0644432 -0.143811 0.0815028 0.379697 -0.362623 0.851078 255 255 255 255 
0.108651 0.0735519 0.110674 -0.0330603 -0.0652091 0.997324 255 255 255 255 
0.111458 -0.205844 -0.0411437 0.621956 -0.0487809 -0.781532 255 255 255 255 
0.136324 -0.179294 -0.076122 0.158752 -0.89781 0.410773 255 255 255 255 
0.112037 -0.26783 -0.0429089 0.800872 0.0388149 -0.597576 255 255 255 255 
0.149101 -0.0821226 -0.0362972 0.590936 0.525999 -0.611654 255 255 255 255 
0.150144 -0.123995 0.0224795 0.832627 -0.302048 0.46422 255 255 255 255 
0.168151 -0.0608729 -0.0026803 0.978837 -0.203707 0.0195544 255 255 255 255 
-0.174925 -0.225403 -0.0576377 0.147996 -0.85083 0.504168 255 255 255 255 
-0.03143 -0.271373 0.0176741 0.676731 -0.723527 -0.136179 255 255 255 255 
-0.197659 -0.106026 0.00136012 -0.905787 0.416372 -0.0786437 255 255 255 255 
-0.123522 -0.202324 0.100702 -0.404809 -0.514951 0.755616 255 255 255 255 
0.118674 -0.178648 -0.0650887 0.305096 -0.808654 0.502986 255 255 255 255 
-0.176114 -0.258088 -0.137439 0.527951 -0.209009 -0.823154 255 255 255 255 
0.100627 -0.071427 0.186787 0.563337 0.359669 0.743834 255 255 255 255 
-0.0480515 -0.231952 0.103598 -0.186455 -0.709463 0.67963 255 255 255 255 
0.0533764 -0.120264 -0.1115 -0.173766 0.553873 -0.814266 255 255 255 255 
0.131254 -0.119143 0.0488833 0.666145 -0.321362 0.673036 255 255 255 255 
0.124756 -0.0373713 0.105952 -0.597503 -0.548107 -0.585294 255 255 255 255 
-0.0628132 -0.33505 -0.0453392 0.969674 -0.155907 -0.188217 255 255 255 255 
-0.0589483 -0.139722 0.151687 0.363257 0.229096 0.903083 255 255 255 255 
0.109774 -0.178327 -0.123932 -0.443079 -0.781771 -0.438767 255 255 255 255 
0.160328 0.126674 0.113936 -0.0619919 -0.125863 0.990109 255 255 255 255 
0.028379 -0.211351 -0.049345 0.304292 -0.823219 -0.479288 255 255 255 255 
-0.19856 -0.304457 -0.160162 0.0972866 -0.828593 -0.551334 255 255 255 255 
-0.121956 -0.302258 -0.0216273 -0.78085 -0.402685 0.477616 255 255 255 255 
0.127672 -0.206917 0.00778208 0.660779 -0.337536 0.670403 255 255 255 255 
0.183571 0.00513341 0.0697979 0.702158 0.36586 0.610836 255 255 255 255 
-0.0979485 -0.157606 0.136813 -0.425252 -0.211133 0.880104 255 255 255 255 
0.192078 -0.221053 -0.152856 0.0013485 -0.773972 0.633219 255 255 255 255 
0.168392 -0.129203 -0.12105 0.585998 0.805768 -0.0856935 255 255 255 255 
-0.135364 -0.02005 -0.0121242 -0.682975 0.714698 -0.15084 255 255 255 255 
0.180445 0.0374521 0.0108586 0.860995 -0.358889 -0.360397 255 255 255 255 
0.0627043 -0.214554 -0.0339319 0.206183 -0.793755 -0.572225 255 255 255 255 
0.184632 -0.143196 -0.107549 0.704383 0.699534 0.120399 255 255 255 255 
-0.091896 -0.143009 -0.119694 -0.148571 0.217663 -0.96465 255 255 255 255 
-0.0545334 -0.0216262 0.0162756 0.123102 0.990545 -0.0605595 255 255 255 255 
-0.183477 -0.127514 -0.0659332 -0.833377 0.240387 -0.497691 255 255 255 255 
0.0507342 -0.219411 0.0115006 0.610253 -0.756155 0.236264 255 255 255 255 
0.0947469 -0.0107608 -0.013635 0.0432537 0.640706 -0.766567 255 255 255 255 
0.0205114 -0.147533 0.093011 0.520338 -0.12624 0.844578 255 255 255 255 
0.055833 -0.175012 -0.0877984 0.0305691 -0.684527 -0.728346 255 255 255 255 
-0.0247154 -0.112048 -0.113896 0.258296 0.423152 -0.868462 255 255 255 255 
-0.00757326 -0.028949 -0.0132485 -0.261112 0.827244 -0.497482 255 255 255 255 
-0.0503059 -0.216025 -0.0823409 0.155129 -0.761573 -0.629238 255 255 255 255 
-0.0455248 -0.24176 -0.051652 0.273721 -0.769834 -0.57657 255 255 255 255 
-0.15712 -0.0397105 0.0544354 -0.778608 0.613964 0.129681 255 255 255 255 
0.0631532 -0.181479 -0.0788002 0.0829636 -0.744312 -0.662658 255 255 255 255 
-0.16936 -0.260966 -0.131053 0.52967 -0.266847 -0.805135 255 255 255 255 
0.033344 -0.104152 0.102307 0.193295 -0.142965 0.970669 255 255 255 255 
-0.0804741 -0.169737 -0.122211 0.0578537 -0.160125 -0.9854 255 255 255 255 
0.130171 0.248258 0.153471 0.894566 -0.162128 0.416492 255 255 255 255 
-0.13821 -0.149762 -0.112272 -0.413625 0.355682 -0.838096 255 255 255 255 
-0.134523 -0.0191241 0.00176098 -0.645412 0.759757 -0.0788272 255 255 255 255 
0.115949 -0.113985 -0.118378 0.131002 0.728418 -0.672492 255 255 255 255 
