ply
format ascii 1.0
comment VCGLIB generated
element vertex 636
property float x
property float y
property float z
property float nx
property float ny
property float nz
property uchar red
property uchar green
property uchar blue
property uchar alpha
element face 0
property list uchar int vertex_indices
end_header
0.00765107 0.241859 -0.197609 -0.267874 0.498533 0.824444 255 255 255 255 
0.112662 -0.114353 -0.0823924 0.768386 0.105579 0.631218 255 255 255 255 
-0.0896441 0.0148813 0.0677926 -0.767753 -0.0805742 -0.635659 255 255 255 255 
0.0685586 -0.239336 0.152592 0.319721 -0.924348 -0.208228 255 255 255 255 
0.0613671 -0.227543 0.12762 0.188468 -0.466039 -0.864458 255 255 255 255 
-0.0398548 -0.098277 0.145044 -0.445078 0.592426 -0.671519 255 255 255 255 
0.0868678 -0.202788 0.143645 0.828962 -0.251025 -0.499808 255 255 255 255 
0.0310189 0.256626 -0.182817 0.570803 0.279412 -0.772083 255 255 255 255 
-0.0558631 -0.091105 0.165312 -0.475439 0.608941 -0.63494 255 255 255 255 
0.0304411 0.241268 -0.175538 -0.643345 -0.033522 0.764842 255 255 255 255 
-0.101104 -0.0657886 0.169957 0.874904 -0.0393024 0.482699 255 255 255 255 
-0.0690274 -0.0838196 0.183256 -0.48313 0.609232 -0.628826 255 255 255 255 
-0.0106066 -0.242841 0.145988 -0.163267 -0.91985 -0.35668 255 255 255 255 
0.141803 0.135063 -0.0994071 -0.571267 -0.195688 0.797095 255 255 255 255 
0.105287 -0.172444 0.236809 0.917565 -0.264918 0.296467 255 255 255 255 
0.0433696 -0.197017 -0.252893 0.580702 0.0970799 -0.808307 255 255 255 255 
0.129039 -0.138125 -0.0637744 -0.531225 0.704179 -0.471097 255 255 255 255 
0.0257564 -0.0924934 -0.0364163 -0.000856669 0.99839 -0.0567232 255 255 255 255 
-0.169067 -0.0536358 0.244212 -0.57516 0.177185 0.798621 255 255 255 255 
0.0225721 -0.0840457 0.145376 0.123187 0.834826 -0.536555 255 255 255 255 
0.208738 -0.1058 -0.286455 -0.585228 -0.115133 -0.802654 255 255 255 255 
0.0360743 -0.135989 -0.0782216 -0.802802 0.125206 -0.582951 255 255 255 255 
-0.0490679 0.114495 0.0323726 0.0560883 0.960104 0.27396 255 255 255 255 
0.00103171 -0.166202 -0.263519 0.144015 0.384392 -0.911868 255 255 255 255 
0.219046 -0.152635 -0.277478 0.221307 -0.960519 -0.168602 255 255 255 255 
0.159117 0.102388 -0.153577 0.814608 0.0925534 0.57258 255 255 255 255 
-0.165439 -0.115237 0.237738 -0.684214 -0.308876 0.660641 255 255 255 255 
-0.0920917 -0.105544 0.171404 0.737493 0.0407943 0.674122 255 255 255 255 
-0.0573304 0.0926461 0.109336 0.737322 0.163657 0.655418 255 255 255 255 
0.094899 -0.0784605 -0.0676938 0.755026 0.0998108 0.648054 255 255 255 255 
-0.0775216 -0.195191 0.139863 -0.985823 -0.167555 0.00880946 255 255 255 255 
0.000280301 -0.220554 0.0699452 0.00626833 -0.999394 0.0342375 255 255 255 255 
-0.0586736 -0.0869146 0.171645 -0.474271 0.613084 -0.631819 255 255 255 255 
-0.0392843 -0.0711586 0.172742 -0.366077 0.696596 -0.617042 255 255 255 255 
0.0210486 0.231349 -0.199762 0.625128 0.225662 -0.747189 255 255 255 255 
-0.0676174 -0.0973217 0.182086 -0.852385 0.506747 0.129025 255 255 255 255 
-0.0578282 -0.0792521 0.177946 -0.452257 0.632525 -0.628789 255 255 255 255 
0.103785 0.0937012 -0.0863924 0.737703 0.0231345 0.674729 255 255 255 255 
0.0838993 -0.185509 0.266053 0.710274 -0.365782 0.601427 255 255 255 255 
0.261097 -0.262073 -0.00905917 0.735267 -0.64549 0.206701 255 255 255 255 
-0.0476511 -0.0738575 0.183584 -0.429962 0.849633 0.305379 255 255 255 255 
-0.0970204 -0.0829327 0.169919 0.536021 0.461838 -0.706673 255 255 255 255 
-0.0903389 -0.191441 0.115874 0.241272 -0.0354934 0.969808 255 255 255 255 
-0.00874288 -0.216446 0.0752581 0.7921 -0.000698144 0.610391 255 255 255 255 
-0.011821 -0.13327 -0.1039 -0.201657 0.633295 0.747176 255 255 255 255 
0.0341187 -0.121933 -0.139123 0.521693 0.839924 0.149546 255 255 255 255 
0.0305705 -0.219037 -0.0816132 0.12692 -0.288819 0.948933 255 255 255 255 
0.230164 -0.240804 -0.0835354 0.474579 -0.412537 -0.777553 255 255 255 255 
-0.0377267 0.114956 0.0156943 -0.0860088 0.979647 0.181369 255 255 255 255 
0.0290484 0.133134 -0.187306 -0.642801 -0.35561 0.67849 255 255 255 255 
-0.10116 -0.139161 0.0803761 0.717316 0.639574 0.276412 255 255 255 255 
0.013014 -0.135318 -0.242976 0.284789 0.5209 -0.80471 255 255 255 255 
-0.177149 -0.00826398 0.221265 -0.53388 0.34255 0.773066 255 255 255 255 
-0.0660278 -0.114599 0.0578133 -0.30695 0.949817 -0.0602459 255 255 255 255 
-0.0855206 -0.1661 0.0758739 0.983526 0.180511 0.00964913 255 255 255 255 
0.0485737 -0.228056 -0.00373145 -0.00833597 -0.965039 0.261973 255 255 255 255 
0.239294 -0.0249247 -0.246961 0.843735 0.0756692 0.5314 255 255 255 255 
-0.126952 -0.139584 0.113658 0.467326 0.654589 0.594239 255 255 255 255 
0.122861 0.21996 -0.121736 0.644935 0.171043 -0.744851 255 255 255 255 
-0.105189 0.0800649 0.0852084 -0.792874 0.134013 -0.594468 255 255 255 255 
0.16832 -0.245317 -0.0931083 -0.0662841 -0.567119 -0.820964 255 255 255 255 
0.109395 -0.16322 0.184735 0.980598 -0.123791 -0.151998 255 255 255 255 
0.120346 0.158578 -0.13718 0.727501 0.114773 -0.676439 255 255 255 255 
0.150818 0.0197794 -0.137668 0.780874 0.0866426 0.61865 255 255 255 255 
-0.158089 -0.163302 0.214081 -0.490389 -0.528012 0.693341 255 255 255 255 
-0.104288 -0.15731 0.189378 0.720426 0.0173574 0.693315 255 255 255 255 
0.00736033 -0.150852 0.295648 -0.137995 0.2169 0.966391 255 255 255 255 
-0.0851906 -0.252467 -0.129912 -0.791118 -0.445987 0.418602 255 255 255 255 
0.0688978 0.0110011 -0.124905 -0.811398 -0.0885335 -0.57775 255 255 255 255 
0.0644019 0.0149308 -0.11896 -0.813343 -0.0969206 -0.573654 255 255 255 255 
-0.144589 0.00765284 0.226175 0.678658 0.1056 0.726823 255 255 255 255 
-0.255963 -0.129106 0.0931358 -0.736023 0.444465 0.510608 255 255 255 255 
-0.0210166 -0.240514 -0.265385 -0.0996817 -0.30043 -0.948581 255 255 255 255 
0.199251 -0.180587 0.0863191 -0.0936077 0.12199 0.988107 255 255 255 255 
0.159629 0.058748 -0.153184 0.802059 0.105799 0.587799 255 255 255 255 
-0.134046 -0.257372 0.0818983 0.537463 -0.79388 0.284408 255 255 255 255 
-0.12438 -0.21784 0.15288 -0.156396 -0.939818 0.303781 255 255 255 255 
-0.00433584 -0.268817 -0.251201 0.103074 -0.681464 -0.724557 255 255 255 255 
-0.0871155 -0.259436 -0.144563 -0.806307 -0.521245 0.279593 255 255 255 255 
-0.0581241 0.240214 -0.249592 -0.688104 -0.0943178 0.719456 255 255 255 255 
0.0920034 -0.114341 0.175562 0.742214 0.602071 -0.294328 255 255 255 255 
0.0819303 -0.241937 -0.17768 0.895028 -0.42893 -0.122247 255 255 255 255 
0.0746696 0.00956819 -0.0921519 -0.913911 -0.271839 0.301447 255 255 255 255 
0.210189 0.0400481 -0.215221 0.829491 0.131323 0.542861 255 255 255 255 
-0.130009 0.0698669 0.117315 -0.806383 0.132565 -0.576344 255 255 255 255 
0.00654823 0.037196 -0.0318781 -0.0412847 -0.911009 -0.410315 255 255 255 255 
-0.0724701 -0.225633 0.0707093 -0.00933098 -0.99943 -0.0324525 255 255 255 255 
0.168225 0.254177 -0.0693015 -0.651081 0.156224 0.742757 255 255 255 255 
0.128576 -0.0513945 -0.10591 0.753661 0.0156599 0.657077 255 255 255 255 
0.0386657 -0.261081 -0.239689 0.489994 -0.591152 -0.640659 255 255 255 255 
-0.218225 -0.0869897 0.0365661 -0.305314 0.95081 -0.0523774 255 255 255 255 
-0.131536 0.0217932 0.211928 0.698095 0.103806 0.70844 255 255 255 255 
-0.0670612 0.0785589 0.123951 0.73234 0.173213 0.658541 255 255 255 255 
0.22938 -0.130158 0.0474738 0.467992 0.698678 0.54114 255 255 255 255 
-0.0651924 0.0639976 0.0318249 -0.781164 -0.00481341 -0.624307 255 255 255 255 
-0.203791 -0.19698 0.140859 -0.275649 -0.103879 0.955629 255 255 255 255 
-0.259688 -0.112523 0.0334233 -0.734339 0.676478 -0.0558916 255 255 255 255 
-0.0255751 0.260203 -0.233464 0.599985 0.270641 -0.752842 255 255 255 255 
0.249073 -0.162061 0.0610577 0.755728 0.186891 0.627652 255 255 255 255 
-0.174156 -0.281079 0.049623 0.126825 -0.990573 0.0517772 255 255 255 255 
0.144465 -0.0606196 -0.216747 -0.778426 -0.104532 -0.618972 255 255 255 255 
0.00323992 0.0445217 -0.047455 -0.770269 -0.0859855 -0.631896 255 255 255 255 
0.144331 -0.106794 -0.000985429 -0.461561 0.882793 0.0874 255 255 255 255 
0.161992 -0.219195 -0.10852 -0.0317163 -0.496271 -0.867588 255 255 255 255 
0.0650245 -0.100012 -0.0272827 0.738001 0.186534 0.648505 255 255 255 255 
0.0969905 0.0626995 -0.165245 -0.766606 -0.0828347 -0.636753 255 255 255 255 
-0.0654618 -0.0957723 0.199606 -0.698003 0.659747 0.278433 255 255 255 255 
0.158213 -0.135955 -0.22478 -0.763091 -0.144933 -0.62983 255 255 255 255 
-0.00736157 0.199075 -0.231986 0.597067 0.177459 -0.782317 255 255 255 255 
0.138978 0.0592085 -0.126287 0.778273 0.0651798 0.624534 255 255 255 255 
0.0303435 -0.0998382 0.271717 0.041651 0.593873 0.80348 255 255 255 255 
-0.279967 -0.171552 0.0763071 -0.931869 0.145032 0.332544 255 255 255 255 
0.182059 -0.0434877 -0.264681 -0.6972 -0.051522 -0.715023 255 255 255 255 
0.0880655 -0.197141 0.25438 0.763802 -0.383313 0.519305 255 255 255 255 
0.165827 -0.0318807 -0.152006 0.77807 0.0464727 0.626456 255 255 255 255 
0.184253 -0.117553 -0.17464 0.677085 -0.109356 0.727735 255 255 255 255 
-0.0401761 0.201813 -0.254175 0.490693 0.106526 -0.864796 255 255 255 255 
0.086403 -0.0867352 -0.0569977 0.74644 0.152822 0.647667 255 255 255 255 
0.147716 -0.14161 0.0583395 -0.418254 0.518394 0.745876 255 255 255 255 
0.139284 -0.276909 0.0176526 -0.443218 -0.829191 0.340587 255 255 255 255 
0.15531 -0.134168 -0.0768948 -0.385557 0.719515 -0.577619 255 255 255 255 
-0.138343 -0.262156 0.0111751 0.457405 -0.852987 -0.251384 255 255 255 255 
-0.142726 -0.128689 -0.0325128 0.341543 0.49951 -0.796139 255 255 255 255 
-0.095267 -0.225331 0.0403061 0.851824 -0.523814 -0.00383146 255 255 255 255 
-0.163039 -0.145459 -0.0486259 0.230359 0.366028 -0.901642 255 255 255 255 
-0.210583 -0.14791 -0.0512476 -0.221975 0.258446 -0.940177 255 255 255 255 
-0.000928712 -0.130818 -0.103534 -0.151633 0.621452 0.768638 255 255 255 255 
-0.0263624 -0.233075 -0.267125 -0.14359 -0.255785 -0.956011 255 255 255 255 
-0.0919544 0.0676065 0.0650423 -0.786888 0.0689759 -0.61323 255 255 255 255 
0.196605 0.0634157 -0.247351 0.478155 0.578139 -0.661152 255 255 255 255 
0.130869 0.0129247 -0.112631 0.749651 0.053237 0.659688 255 255 255 255 
-0.13516 -0.113873 0.126794 0.211439 0.589608 -0.779523 255 255 255 255 
-0.0545188 0.0258548 0.11611 0.505674 -0.820056 0.267959 255 255 255 255 
0.202703 -0.0793921 -0.191452 0.761928 -0.0179782 0.647412 255 255 255 255 
0.0177783 -0.130408 0.109079 0.0851505 0.379283 -0.921354 255 255 255 255 
-0.279411 -0.21907 0.0467534 -0.957866 -0.286658 -0.0179081 255 255 255 255 
-0.199814 -0.13289 0.128254 -0.104286 0.523342 0.845717 255 255 255 255 
0.13888 -0.0746258 -0.139612 0.238606 -0.0695736 -0.968621 255 255 255 255 
-0.0586066 -0.222622 0.0470613 -0.0333204 -0.998398 -0.0457277 255 255 255 255 
-0.121064 -0.228694 0.104934 0.618902 -0.693579 0.368657 255 255 255 255 
0.225678 0.1936 -0.039369 0.706705 0.0948908 -0.701116 255 255 255 255 
0.156184 -0.112546 -0.225715 -0.770706 -0.131524 -0.623468 255 255 255 255 
-0.162389 -0.0233747 0.236569 -0.506538 0.299072 0.808687 255 255 255 255 
0.26923 -0.176134 0.0383846 0.797906 0.0650698 0.599259 255 255 255 255 
-0.0385354 -0.135678 -0.241968 -0.272946 0.767007 -0.58069 255 255 255 255 
0.119741 -0.233229 0.0524832 -0.611497 -0.353871 0.707706 255 255 255 255 
0.0830424 -0.100213 0.23434 0.565706 0.795234 0.218127 255 255 255 255 
0.111382 -0.154316 0.221484 0.981726 -0.156687 0.108 255 255 255 255 
-0.0784311 -0.118921 0.16069 -0.549978 0.532575 -0.643341 255 255 255 255 
-0.128851 -0.181333 -0.0416652 0.539236 -0.0256829 -0.841763 255 255 255 255 
0.0250467 -0.112496 -0.156981 0.435426 0.898729 0.0518679 255 255 255 255 
0.0730257 -0.150444 -0.157364 0.746131 0.664448 0.0423961 255 255 255 255 
-0.00323833 -0.202093 0.289471 -0.0494994 -0.368366 0.928362 255 255 255 255 
0.00100061 -0.188472 0.294289 -0.00260363 -0.285709 0.958313 255 255 255 255 
-0.285279 -0.191049 0.0543569 -0.992711 -0.0813161 0.0889544 255 255 255 255 
-0.00782996 -0.156544 -0.0871142 -0.111348 0.479398 0.870505 255 255 255 255 
0.0968766 -0.168352 0.14405 0.867271 -0.172657 -0.466937 255 255 255 255 
-0.0481748 -0.201517 -0.264659 -0.423452 0.0791022 -0.902458 255 255 255 255 
0.156429 -0.275362 -0.0629485 -0.302909 -0.812163 -0.498636 255 255 255 255 
-0.110155 -0.207788 -0.167898 -0.998918 -0.0147886 0.0441024 255 255 255 255 
-0.252798 -0.162562 0.111902 -0.665661 0.205838 0.717305 255 255 255 255 
-0.178226 -0.151665 0.196286 -0.892898 -0.129641 -0.431193 255 255 255 255 
-0.115427 -0.234736 -0.00722039 0.653167 -0.57412 -0.49372 255 255 255 255 
-0.0838802 0.0765534 0.144213 0.726437 0.184231 0.662078 255 255 255 255 
0.11358 0.174782 -0.148824 0.355676 0.833087 -0.423627 255 255 255 255 
-0.137455 -0.106928 0.225058 0.706363 0.0165115 0.707657 255 255 255 255 
0.0912807 0.198066 -0.130372 -0.630303 -0.0400935 0.775313 255 255 255 255 
-0.179388 -0.0821616 0.0355455 -0.0250065 0.996134 -0.0842106 255 255 255 255 
-0.142598 -0.263868 0.0808903 0.408483 -0.844404 0.346589 255 255 255 255 
0.142119 0.0445926 -0.129164 0.778942 0.0759483 0.62248 255 255 255 255 
-0.0206476 0.0401962 0.0736402 0.774193 0.0447025 0.63137 255 255 255 255 
0.179789 0.0915639 -0.182932 0.827659 0.148692 0.541176 255 255 255 255 
0.0847655 -0.230352 0.227582 0.57169 -0.78581 0.235949 255 255 255 255 
0.0344373 -0.224055 0.00782016 0.0105556 -0.971299 0.237626 255 255 255 255 
0.253377 -0.0760146 -0.259897 0.833274 0.0247224 0.552307 255 255 255 255 
-0.106051 -0.0597633 0.178149 0.88585 -0.0460291 0.461683 255 255 255 255 
0.0794004 0.0502227 -0.0551056 0.72728 6.85878e-005 0.686341 255 255 255 255 
0.205315 -0.122287 -0.193345 0.732921 -0.0946903 0.673691 255 255 255 255 
-0.18841 -0.146699 0.136985 -0.00780068 0.40724 0.913288 255 255 255 255 
0.112773 -0.251186 -0.0918293 0.813212 -0.547942 0.196075 255 255 255 255 
0.0134337 -0.288095 -0.219822 0.255433 -0.833104 -0.490604 255 255 255 255 
0.0307834 0.119193 -0.190898 -0.628973 -0.404887 0.663671 255 255 255 255 
0.127468 -0.105131 -0.10363 0.784905 0.0456983 0.617929 255 255 255 255 
-0.171167 -0.17265 0.190413 -0.886504 -0.125349 -0.44542 255 255 255 255 
0.0959478 0.156895 -0.0932946 -0.155424 0.930452 0.331818 255 255 255 255 
0.226378 -0.126692 -0.28365 0.665791 -0.190083 -0.72152 255 255 255 255 
-0.0317238 0.0192061 0.0626148 0.165441 -0.985909 -0.0247512 255 255 255 255 
-0.0848309 -0.153087 -0.132131 -0.679104 0.586658 0.441191 255 255 255 255 
0.180944 0.0251166 -0.264822 -0.739911 0.0358322 -0.67175 255 255 255 255 
-0.234614 -0.100736 0.075289 -0.445295 0.835692 0.321452 255 255 255 255 
-0.109031 -0.201922 -0.0203251 0.693397 -0.137075 -0.707397 255 255 255 255 
-0.1812 -0.113068 -0.0327035 0.117288 0.645868 -0.754386 255 255 255 255 
0.115436 -0.119175 -0.144704 0.131599 -0.0101279 -0.991251 255 255 255 255 
0.0193613 0.150706 -0.191077 -0.653952 -0.307466 0.69124 255 255 255 255 
0.0373595 -0.222904 0.273746 0.245515 -0.529888 0.811752 255 255 255 255 
0.0264963 -0.230022 -0.0139882 0.0010344 -0.968291 0.249823 255 255 255 255 
-0.207161 -0.211452 0.137763 -0.273112 -0.198616 0.941255 255 255 255 255 
-0.220953 -0.231844 -0.0353355 -0.293173 -0.545105 -0.785437 255 255 255 255 
-0.0941805 0.00721195 0.130809 0.475609 -0.876115 0.0788604 255 255 255 255 
-0.247867 -0.119725 0.0956089 -0.601801 0.639386 0.478561 255 255 255 255 
-0.107937 -0.0994221 0.148796 0.417671 0.534397 -0.734827 255 255 255 255 
0.238249 -0.272685 -0.0599921 0.478036 -0.550378 -0.684519 255 255 255 255 
0.134326 0.0808574 -0.121662 0.770853 0.0412951 0.635673 255 255 255 255 
-0.0520045 -0.298539 -0.177618 -0.339491 -0.91794 0.205262 255 255 255 255 
0.138895 -0.0966742 -0.190414 -0.554512 -0.720678 0.4161 255 255 255 255 
0.0103819 -0.0962309 -0.0387699 -0.742799 0.236361 -0.626405 255 255 255 255 
0.115772 -0.000198264 -0.185154 -0.778831 -0.0377167 -0.626099 255 255 255 255 
0.0817171 0.0672029 -0.0576244 0.732936 0.0168551 0.680089 255 255 255 255 
0.122352 0.152593 -0.109698 0.73707 0.020312 0.675511 255 255 255 255 
-0.0824224 -0.161369 0.127665 -0.995936 -0.0804395 0.0405029 255 255 255 255 
-0.255255 -0.11877 0.0816109 -0.725752 0.573932 0.379324 255 255 255 255 
0.107677 -0.138785 -0.0108739 -0.806669 0.586565 -0.0722957 255 255 255 255 
0.130145 -0.0854163 -0.192534 -0.78917 -0.118437 -0.602647 255 255 255 255 
0.250261 -0.119985 -0.251894 0.816127 -0.0643936 0.574273 255 255 255 255 
0.12738 -0.267912 0.0231785 -0.534614 -0.768815 0.350874 255 255 255 255 
-0.268181 -0.127321 0.0628032 -0.831037 0.493447 0.256684 255 255 255 255 
-0.0241187 0.105931 -0.0198083 -0.785243 0.013025 -0.61905 255 255 255 255 
0.0862737 -0.215917 -0.205081 0.928052 -0.208524 -0.308606 255 255 255 255 
0.0878398 -0.156084 -0.147019 -0.519975 -0.0170257 -0.854012 255 255 255 255 
0.284874 -0.199349 -0.0256874 0.940139 -0.208868 -0.269282 255 255 255 255 
0.0988138 -0.116518 0.223958 0.792116 0.610363 -0.0031429 255 255 255 255 
0.153921 -0.113887 0.0372412 -0.389458 0.778598 0.492043 255 255 255 255 
-0.0791844 -0.14703 0.230787 -0.919698 0.262003 0.292421 255 255 255 255 
0.0350284 -0.0814751 0.24992 0.252535 0.853707 0.455423 255 255 255 255 
-0.109636 -0.135928 -0.0099258 0.784241 0.449045 -0.428164 255 255 255 255 
0.227255 0.000124601 -0.23312 0.831114 0.0849302 0.549579 255 255 255 255 
-0.191709 -0.129418 0.12663 -0.0437739 0.557571 0.828974 255 255 255 255 
-0.230029 -0.175706 -0.0490235 -0.473557 0.0767976 -0.877409 255 255 255 255 
0.185849 0.0523792 -0.264054 0.471176 0.55254 -0.687526 255 255 255 255 
-0.0132856 -0.220477 -0.00318641 -0.756724 -0.308417 -0.576409 255 255 255 255 
-0.0944167 -0.251068 -0.204424 -0.870176 -0.451536 -0.197255 255 255 255 255 
-0.207903 -0.27646 0.0235069 -0.152745 -0.981335 -0.116839 255 255 255 255 
0.0821061 -0.0809822 -0.066041 0.125822 0.781291 0.611354 255 255 255 255 
-0.157301 -0.0150487 0.146276 -0.764372 -0.0386752 -0.643614 255 255 255 255 
0.134835 0.00259714 -0.209749 -0.775175 -0.0175782 -0.631502 255 255 255 255 
-0.192007 -0.195653 0.142549 0.00599334 -0.1043 0.994528 255 255 255 255 
0.215052 -0.15487 -0.209009 0.766586 -0.133311 0.628151 255 255 255 255 
-0.0813774 -0.22155 0.0326956 -0.0409296 -0.997391 -0.0594578 255 255 255 255 
0.22678 -0.20829 0.0827361 0.643865 -0.156436 0.748976 255 255 255 255 
-0.0620388 -0.221354 0.106236 0.276908 -0.105577 0.955079 255 255 255 255 
0.204903 -0.157552 -0.203319 -0.300114 -0.899639 0.317147 255 255 255 255 
-0.17469 -0.111826 0.120345 0.189705 0.537905 -0.821383 255 255 255 255 
0.225205 -0.145412 0.0689759 0.458593 0.679407 0.572798 255 255 255 255 
-0.000630234 -0.109456 0.0418614 0.0506724 0.98879 0.140451 255 255 255 255 
0.163532 0.136239 -0.165049 0.838353 0.1656 0.519365 255 255 255 255 
0.0278367 -0.104262 0.018452 0.754364 0.125802 0.644289 255 255 255 255 
0.0962865 -0.0703002 -0.0700569 0.754523 0.0769125 0.651751 255 255 255 255 
0.198231 0.0044364 -0.283483 -0.715464 -0.00317733 -0.698643 255 255 255 255 
-0.0660408 -0.122961 -0.161559 -0.589005 0.782171 0.203179 255 255 255 255 
-0.193873 -0.0350954 0.220253 -0.561833 0.257317 0.786213 255 255 255 255 
0.0445414 -0.223554 -0.104386 -0.733237 -0.284723 -0.617492 255 255 255 255 
-0.0503838 0.0542782 0.014165 -0.773345 -0.0879034 -0.627862 255 255 255 255 
-0.0510237 -0.202745 0.119927 0.00722078 -0.506545 -0.862183 255 255 255 255 
0.0276639 -0.150755 0.0262608 0.759679 0.0942539 0.643431 255 255 255 255 
-0.0765041 -0.203094 0.0230934 0.873258 -0.0863963 -0.479537 255 255 255 255 
0.0635425 -0.154824 -0.0147779 0.754492 0.0695607 0.652612 255 255 255 255 
0.110449 0.168043 -0.0978581 0.729337 0.0214835 0.683817 255 255 255 255 
-0.0851266 -0.217307 0.0159431 0.825606 -0.269848 -0.495537 255 255 255 255 
0.117415 -0.0931049 -0.0917486 0.774914 0.0546009 0.629704 255 255 255 255 
-0.0437677 -0.22137 0.029779 -0.0231603 -0.999651 0.0126745 255 255 255 255 
-0.137931 -0.0226945 0.126983 -0.742883 -0.0462523 -0.667821 255 255 255 255 
0.181558 -0.125588 0.0616324 -0.205985 0.623733 0.754007 255 255 255 255 
0.0191305 -0.112937 -0.128629 0.388765 0.917284 0.0863197 255 255 255 255 
0.00873388 -0.21831 0.118391 0.0308332 -0.530066 -0.847395 255 255 255 255 
-0.172066 -0.115621 0.230627 -0.684928 -0.309365 0.659672 255 255 255 255 
0.11188 -0.141287 0.227972 0.988131 -0.128114 0.0847516 255 255 255 255 
0.0665115 -0.0551845 -0.118504 -0.78 -0.0478732 -0.623946 255 255 255 255 
0.177165 0.0865249 -0.239377 0.426518 0.634816 -0.644276 255 255 255 255 
0.212442 -0.201896 0.0877196 0.00520532 -0.0237193 0.999705 255 255 255 255 
0.0931681 -0.192571 0.148682 0.851077 -0.232405 -0.470804 255 255 255 255 
0.160143 0.263271 -0.0796548 0.481204 0.413511 -0.772949 255 255 255 255 
0.178002 -0.124792 -0.0789547 -0.301411 0.768769 -0.564044 255 255 255 255 
-0.107127 -0.023056 0.176475 0.936422 -0.166899 0.308641 255 255 255 255 
-0.233707 -0.10774 -0.010066 -0.488535 0.689167 -0.535147 255 255 255 255 
0.112185 -0.136376 -0.076796 0.774097 0.113271 0.622851 255 255 255 255 
0.0451986 0.160875 -0.169518 -0.652004 -0.204644 0.730076 255 255 255 255 
-0.122283 -0.183168 0.209371 0.722156 -0.00525899 0.69171 255 255 255 255 
-0.1253 -0.100491 0.0434753 0.690482 0.722072 0.0429777 255 255 255 255 
0.236671 -0.136763 -0.071766 0.570642 0.700527 -0.428521 255 255 255 255 
0.0161403 -0.183474 -0.0754895 0.0189669 0.229933 0.973022 255 255 255 255 
-0.215157 -0.144471 0.13122 -0.311151 0.366463 0.876864 255 255 255 255 
0.196632 0.152273 -0.0566582 -0.554543 -0.156752 0.817258 255 255 255 255 
-0.14314 -0.0313772 0.133328 -0.744123 -0.0557498 -0.665713 255 255 255 255 
0.172797 -0.0588274 -0.253022 -0.721817 -0.0708182 -0.688451 255 255 255 255 
-0.107567 -0.209345 -0.15083 -0.967352 0.0082506 0.253301 255 255 255 255 
0.0961125 0.0946388 -0.168672 -0.757581 -0.0843303 -0.64727 255 255 255 255 
-0.00483763 -0.171693 0.295963 -0.202104 0.0349139 0.978742 255 255 255 255 
-0.134746 -0.2433 0.102949 0.506356 -0.738729 0.444841 255 255 255 255 
-0.0640301 0.0177432 0.051224 0.0120996 -0.985538 -0.169024 255 255 255 255 
-0.0148083 -0.306067 -0.175687 -0.0841567 -0.982045 0.168833 255 255 255 255 
0.0986324 -0.241174 -0.00449175 -0.865957 -0.496103 0.063247 255 255 255 255 
0.130489 -0.124331 -0.046421 -0.562186 0.750071 -0.34834 255 255 255 255 
0.187081 0.0740541 -0.190746 0.820355 0.145516 0.553031 255 255 255 255 
0.179327 0.0387829 -0.175626 0.800508 0.125121 0.586116 255 255 255 255 
0.263953 -0.258389 -0.0378241 0.85198 -0.338752 -0.399221 255 255 255 255 
0.202089 -0.104903 -0.189442 0.730772 -0.0700371 0.679019 255 255 255 255 
-0.120325 0.0354162 0.101074 -0.793401 0.0316847 -0.607874 255 255 255 255 
-0.108716 0.0905898 0.114008 -0.331863 0.942577 0.0376311 255 255 255 255 
0.158379 -0.232762 -0.100144 -0.0816218 -0.541071 -0.837006 255 255 255 255 
-0.22773 -0.0944427 0.0678585 -0.389248 0.875196 0.28726 255 255 255 255 
0.060553 -0.104047 0.269159 0.327958 0.802424 0.498556 255 255 255 255 
0.0177361 -0.218525 -0.0500629 -0.776152 -0.422798 -0.467792 255 255 255 255 
-0.191164 -0.0650749 0.229051 -0.684682 -0.0576784 0.726556 255 255 255 255 
-0.0363595 -0.243254 -0.0802968 -0.0269758 -0.216832 0.975836 255 255 255 255 
0.0941856 -0.193091 0.0413789 -0.658243 -0.0835829 0.748151 255 255 255 255 
-0.13452 -0.0136251 0.121371 -0.755638 -0.0260307 -0.654473 255 255 255 255 
0.103264 -0.122586 0.228556 0.791229 0.611479 0.00705023 255 255 255 255 
0.238905 -0.153007 -0.240699 0.800803 -0.135628 0.583369 255 255 255 255 
0.0206817 -0.234129 -0.0284913 -0.00777589 -0.967295 0.253536 255 255 255 255 
0.0912001 -0.108486 0.238728 0.719119 0.689626 0.0853501 255 255 255 255 
0.125904 -0.185542 -0.160123 0.149496 -0.511307 -0.846295 255 255 255 255 
0.210549 -0.285282 -0.0348686 0.170291 -0.963969 -0.204362 255 255 255 255 
0.0524418 -0.125304 0.284077 0.128847 0.335875 0.933052 255 255 255 255 
-0.152389 -0.198861 0.175729 -0.683311 -0.716186 -0.142 255 255 255 255 
0.0116303 -0.243555 -0.0857632 0.181857 -0.369356 0.91132 255 255 255 255 
-0.0499537 -0.250878 -0.0843906 -0.704996 -0.226141 0.672191 255 255 255 255 
-0.013842 -0.248925 -0.0826822 0.0878835 -0.311458 0.946187 255 255 255 255 
-0.104262 -0.0450511 0.161813 0.932831 -0.130322 0.33592 255 255 255 255 
-0.0629558 -0.0881827 0.1901 -0.652126 0.707133 0.273303 255 255 255 255 
-0.0188003 -0.229833 0.128916 -0.118548 -0.909356 -0.398771 255 255 255 255 
0.110523 -0.14854 0.233578 0.977098 -0.16027 0.139977 255 255 255 255 
0.223657 -0.144113 -0.2804 0.6552 -0.203597 -0.727504 255 255 255 255 
0.0990812 -0.175839 0.249935 0.82673 -0.320783 0.462186 255 255 255 255 
0.261592 -0.259185 -0.00173869 0.736766 -0.635135 0.231903 255 255 255 255 
0.0631756 0.0230452 -0.118444 -0.813664 -0.103135 -0.572114 255 255 255 255 
0.0869028 -0.102528 0.188204 0.727045 0.658152 -0.195554 255 255 255 255 
0.129692 -0.0593159 -0.107301 0.762326 0.0115864 0.647089 255 255 255 255 
0.157796 -0.0555187 -0.234731 -0.755746 -0.0849685 -0.649329 255 255 255 255 
-0.00338443 0.0444893 -0.0396088 -0.765097 -0.101508 -0.635864 255 255 255 255 
0.155275 -0.120958 -0.223106 -0.770707 -0.136919 -0.622305 255 255 255 255 
0.169465 -0.102917 -0.159181 0.721248 -0.0639778 0.689716 255 255 255 255 
-0.0891401 -0.21218 0.0458273 0.898161 -0.439133 0.0216572 255 255 255 255 
-0.0375389 -0.142045 -0.248074 -0.294385 0.530206 -0.795122 255 255 255 255 
0.107973 -0.129661 0.219886 0.815284 0.578484 -0.0258595 255 255 255 255 
-0.116155 -0.239792 -0.00137255 0.650482 -0.643079 -0.404131 255 255 255 255 
0.126552 -0.130242 -0.0972205 0.786647 0.093667 0.610257 255 255 255 255 
0.134599 -0.123562 -0.110429 0.788978 0.0664885 0.610813 255 255 255 255 
-0.110753 -0.0798598 0.159812 0.489105 0.442736 -0.751506 255 255 255 255 
0.0248702 -0.0947699 -0.0546549 -0.756002 0.215386 -0.618118 255 255 255 255 
0.143729 -0.102742 -0.191221 -0.546049 -0.71186 0.441686 255 255 255 255 
-0.0108576 0.109942 -0.0351354 -0.788732 0.0338121 -0.613807 255 255 255 255 
0.0829524 -0.15136 -0.143078 -0.552081 -0.000895144 -0.83379 255 255 255 255 
0.108305 -0.129907 0.228725 0.811077 0.584861 -0.00954061 255 255 255 255 
0.0383859 -0.0797124 0.243008 0.28899 0.885636 0.363503 255 255 255 255 
-0.235211 -0.191748 -0.0466259 -0.538768 -0.0295803 -0.841935 255 255 255 255 
-0.0134027 -0.21313 -0.0076641 -0.764702 -0.194934 -0.614192 255 255 255 255 
0.227238 -0.153986 -0.224656 0.78664 -0.143657 0.600467 255 255 255 255 
-0.0608576 0.0716455 0.0262135 -0.783573 0.00585339 -0.621272 255 255 255 255 
0.109359 0.165447 -0.110107 -0.169284 0.924871 0.340523 255 255 255 255 
0.11224 -0.103451 -0.0839222 0.769853 0.0885019 0.632055 255 255 255 255 
-0.0662032 -0.221015 0.0220391 -0.0352929 -0.998821 -0.0333178 255 255 255 255 
0.107911 -0.159162 0.239644 0.935926 -0.230735 0.266091 255 255 255 255 
0.209384 -0.217986 0.0868451 0.0448987 -0.134301 0.989923 255 255 255 255 
0.167642 0.26294 -0.0749607 0.469739 0.427952 -0.772141 255 255 255 255 
0.247116 -0.157589 -0.0833934 0.738008 0.4724 -0.481854 255 255 255 255 
0.175094 0.0447742 -0.171331 0.801416 0.125625 0.584766 255 255 255 255 
0.0771975 -0.103667 0.255212 0.415381 0.817512 0.398915 255 255 255 255 
-0.1189 -0.00138745 0.105329 0.334352 -0.942435 -0.00503787 255 255 255 255 
0.0977142 -0.11513 0.233665 0.764643 0.643377 0.0372487 255 255 255 255 
0.233115 -0.153504 -0.232645 0.794125 -0.14241 0.590834 255 255 255 255 
0.0849028 -0.104983 0.247365 0.517949 0.804392 0.291002 255 255 255 255 
0.132623 -0.191303 -0.15503 0.165886 -0.519612 -0.838144 255 255 255 255 
0.0590052 -0.14939 0.286615 0.253927 -0.0176016 0.967063 255 255 255 255 
-0.152807 -0.195035 0.157261 -0.686218 -0.710493 -0.155902 255 255 255 255 
-0.0290703 -0.246291 -0.0809775 0.0152237 -0.253518 0.967211 255 255 255 255 
-0.00264313 -0.231475 0.129438 -0.0251666 -0.71655 -0.697082 255 255 255 255 
0.105403 -0.124879 0.236311 0.780483 0.624583 0.0272616 255 255 255 255 
0.0854633 -0.176499 0.269367 0.734019 -0.347127 0.583711 255 255 255 255 
-0.00125279 0.0382747 -0.0336601 -0.0542894 -0.908401 -0.414561 255 255 255 255 
0.153363 -0.0987261 -0.14047 0.765887 -0.0424561 0.641572 255 255 255 255 
0.14305 -0.111142 -0.126184 0.784978 -0.00205106 0.61952 255 255 255 255 
0.0397158 -0.0945842 -0.0757633 -0.78796 0.134774 -0.600795 255 255 255 255 
0.0751213 -0.153352 -0.15042 0.759261 0.648654 0.0526308 255 255 255 255 
0.0961008 -0.113818 0.242253 0.746859 0.661948 0.0634555 255 255 255 255 
0.104191 -0.167711 0.245057 0.898236 -0.271166 0.345892 255 255 255 255 
0.242817 -0.1464 -0.0782123 0.677727 0.569879 -0.464676 255 255 255 255 
0.0692378 -0.103116 0.262562 0.399625 0.817064 0.415579 255 255 255 255 
-0.129693 -0.0120668 0.115074 -0.763065 -0.015439 -0.646137 255 255 255 255 
0.111727 -0.138626 0.238027 0.975325 -0.161923 0.150074 255 255 255 255 
0.110812 -0.174542 -0.159712 -0.443276 -0.0913427 -0.891719 255 255 255 255 
0.0734432 -0.163438 0.28162 0.313475 -0.128097 0.940917 255 255 255 255 
0.10987 -0.147305 0.241753 0.960444 -0.191377 0.202292 255 255 255 255 
0.100634 -0.16293 0.257075 0.8511 -0.294583 0.434567 255 255 255 255 
0.147943 -0.104925 -0.133539 0.777302 -0.0267578 0.628558 255 255 255 255 
0.157723 -0.106607 -0.146596 0.753575 -0.0472807 0.655659 255 255 255 255 
0.109011 -0.14074 0.25242 0.94639 -0.210444 0.245072 255 255 255 255 
0.0937252 -0.16738 0.266093 0.830396 -0.305427 0.466 255 255 255 255 
0.227482 -0.131019 -0.0737532 0.515708 0.748639 -0.416635 255 255 255 255 
0.0902944 -0.109574 0.25102 0.534866 0.795552 0.284631 255 255 255 255 
-0.12431 -0.00669663 0.110201 0.410799 -0.911366 0.0256121 255 255 255 255 
0.10564 -0.153792 0.253078 0.914604 -0.247565 0.319705 255 255 255 255 
0.0982704 -0.15426 0.270078 0.88268 -0.272 0.383266 255 255 255 255 
0.105427 -0.123269 0.247186 0.714586 0.691317 0.106995 255 255 255 255 
0.0913509 -0.179031 0.261659 0.800673 -0.327206 0.501855 255 255 255 255 
0.135245 -0.113585 -0.11398 0.787314 0.0336553 0.615633 255 255 255 255 
0.170304 -0.112007 -0.161293 0.71019 -0.0755847 0.699941 255 255 255 255 
0.0976407 -0.116256 0.255647 0.589076 0.772303 0.237774 255 255 255 255 
0.0848336 -0.166039 0.276545 0.412178 -0.207679 0.887118 255 255 255 255 
0.205832 -0.121604 -0.0793278 0.405369 0.82673 -0.390119 255 255 255 255 
0.102566 -0.122486 0.262852 0.649084 0.739007 0.180442 255 255 255 255 
-0.113791 0.00215365 0.0997559 0.278529 -0.960064 -0.0264397 255 255 255 255 
0.102277 -0.154121 0.261709 0.89331 -0.264601 0.363296 255 255 255 255 
0.0795637 -0.152097 0.281098 0.31755 -0.093426 0.943628 255 255 255 255 
0.11035 -0.129412 0.242753 0.754525 0.653317 0.0622058 255 255 255 255 
0.0759768 -0.17623 0.278315 0.383794 -0.223049 0.896075 255 255 255 255 
0.133597 -0.105828 -0.112414 0.786905 0.0265099 0.616504 255 255 255 255 
0.0805856 -0.10984 0.269012 0.508563 0.800287 0.317655 255 255 255 255 
0.0616612 -0.161725 0.285708 0.279552 -0.0817942 0.95664 255 255 255 255 
0.191194 -0.120873 -0.0807115 -0.24968 0.802429 -0.542003 255 255 255 255 
0.10455 -0.139508 0.267964 0.910212 -0.250033 0.330148 255 255 255 255 
0.0897468 -0.159631 0.276026 0.390777 -0.176305 0.903443 255 255 255 255 
0.0687212 -0.13204 0.284014 0.170934 0.303335 0.937427 255 255 255 255 
0.105813 -0.146822 0.26988 0.472928 -0.188726 0.860652 255 255 255 255 
0.143222 -0.102273 -0.126647 0.782739 -0.0110799 0.622252 255 255 255 255 
0.0751002 -0.119999 0.279029 0.164093 0.345538 0.923946 255 255 255 255 
0.0601121 -0.137963 0.286591 0.235382 0.0737562 0.9691 255 255 255 255 
0.215696 -0.125794 -0.0777851 0.460792 0.79017 -0.404107 255 255 255 255 
0.0878535 -0.135036 0.280882 0.238949 0.144778 0.960178 255 255 255 255 
0.0700731 -0.148455 0.284916 0.306843 -0.0577866 0.950004 255 255 255 255 
0.0627028 -0.122949 0.282283 0.157208 0.361117 0.919174 255 255 255 255 
0.0888645 -0.147925 0.279453 0.405807 -0.126307 0.905189 255 255 255 255 
0.138366 -0.104051 -0.119565 0.786234 0.00650769 0.617895 255 255 255 255 
0.0920956 -0.116923 0.272319 0.584034 0.77333 0.24671 255 255 255 255 
0.0688716 -0.157374 0.284794 0.331125 -0.11097 0.937039 255 255 255 255 
0.23304 -0.139727 -0.0818493 0.573512 0.689571 -0.442239 255 255 255 255 
0.0790682 -0.141748 0.283231 0.300979 -0.00686072 0.953606 255 255 255 255 
0.0515994 -0.14644 0.289495 0.240496 0.0238064 0.970358 255 255 255 255 
0.0666704 -0.111201 0.276452 0.156236 0.408673 0.899209 255 255 255 255 
0.0978269 -0.143984 0.27646 0.37538 -0.0896992 0.92252 255 255 255 255 
0.12963 -0.117694 -0.105233 0.785741 0.0555299 0.616058 255 255 255 255 
0.0907806 -0.125654 0.27945 0.270527 0.109228 0.956496 255 255 255 255 
0.242686 -0.159858 -0.0928128 0.721614 0.493798 -0.485218 255 255 255 255 
0.0774803 -0.130541 0.282811 0.22518 0.189095 0.955791 255 255 255 255 
0.0698744 -0.140707 0.285724 0.265747 0.0567729 0.96237 255 255 255 255 
0.0899327 -0.112332 0.263258 0.605167 0.763886 0.224167 255 255 255 255 
0.110665 -0.130039 0.260833 0.696727 0.705471 0.129928 255 255 255 255 
0.0989019 -0.132436 0.277543 0.30655 0.0359687 0.951175 255 255 255 255 
0.238639 -0.149129 -0.0878771 0.670171 0.573115 -0.471604 255 255 255 255 
0.0837073 -0.107781 0.259319 0.518226 0.797975 0.307698 255 255 255 255 
0.110885 -0.129365 0.251848 0.718738 0.687217 0.105586 255 255 255 255 
0.103126 -0.124696 0.2709 0.642464 0.742702 0.188769 255 255 255 255 
0.223408 -0.133692 -0.084568 0.518739 0.740534 -0.427222 255 255 255 255 
-0.275058 -0.15277 0.0764072 -0.887973 0.282002 0.363289 255 255 255 255 
0.122193 -0.14837 -0.0678791 -0.538157 0.684634 -0.491593 255 255 255 255 
-0.157512 -0.0810932 0.152087 -0.813793 -0.0393234 -0.579823 255 255 255 255 
0.070124 -0.129361 -0.126899 -0.694814 0.0329986 -0.718432 255 255 255 255 
0.182443 0.0984131 -0.222727 0.443891 0.671821 -0.592973 255 255 255 255 
-0.0783583 -0.16703 0.05886 -0.700035 0.00202538 -0.714105 255 255 255 255 
-0.0889123 -0.124963 0.117375 0.188625 0.933635 -0.304544 255 255 255 255 
-0.0872797 -0.169047 0.199311 -0.992887 -0.0538158 0.106204 255 255 255 255 
0.0632493 -0.0909215 -0.051371 -0.0148991 0.946601 0.322062 255 255 255 255 
0.173441 -0.189883 0.0851776 -0.186582 0.108018 0.976483 255 255 255 255 
0.0718419 0.0176932 -0.0958889 -0.0914733 -0.852557 0.514567 255 255 255 255 
0.039071 -0.209598 -0.100543 -0.763532 -0.175963 -0.621334 255 255 255 255 
0.137206 0.104173 -0.212968 -0.722512 -0.0132538 -0.691231 255 255 255 255 
0.127134 0.145324 -0.114515 0.745177 0.021387 0.666523 255 255 255 255 
0.0553607 -0.161885 -0.00475653 0.755744 0.0493952 0.653001 255 255 255 255 
-0.149266 -0.0649233 0.235799 0.696095 0.0329705 0.717192 255 255 255 255 
-0.0936463 -0.207899 0.0697832 0.887355 -0.444983 0.120795 255 255 255 255 
0.0166468 0.179527 -0.189551 -0.65372 -0.21183 0.726483 255 255 255 255 
0.0143793 -0.0924587 -0.00706244 -0.141037 0.988737 0.0500695 255 255 255 255 
-0.101721 -0.128651 0.050789 0.813735 0.579242 0.0481091 255 255 255 255 
-0.00777924 -0.167535 0.100992 -0.0339869 0.0291087 -0.998998 255 255 255 255 
0.0189721 0.0313872 0.00850851 0.645292 -0.641472 0.414864 255 255 255 255 
0.23408 0.261445 -0.00973882 -0.276557 0.0313935 0.960485 255 255 255 255 
0.0646255 -0.149924 -0.132208 0.652702 0.726252 0.215727 255 255 255 255 
0.124401 -0.139616 -0.0918095 0.7976 0.0943024 0.595769 255 255 255 255 
0.218884 -0.207384 -0.102123 0.418443 -0.296369 -0.858529 255 255 255 255 
-0.137089 -0.181738 0.13096 -0.879039 -0.0791406 -0.470136 255 255 255 255 
-0.0200242 0.25384 -0.230847 0.606875 0.256603 -0.752235 255 255 255 255 
-0.0526873 -0.117919 0.0337772 -0.746651 0.0709712 -0.66142 255 255 255 255 
0.000107056 -0.124147 -0.108956 -0.204802 0.66765 0.715751 255 255 255 255 
0.0108203 -0.156221 0.0471772 0.767342 0.108111 0.632059 255 255 255 255 
0.20344 -0.172709 0.0856104 -0.100962 0.152877 0.983074 255 255 255 255 
0.138741 0.156254 -0.12865 0.770802 0.0401827 0.635807 255 255 255 255 
0.203038 -0.215456 -0.105519 0.202198 -0.383524 -0.901125 255 255 255 255 
-0.167127 -0.147318 0.174715 -0.881107 -0.106703 -0.460722 255 255 255 255 
0.0456937 -0.136132 -0.122911 0.586415 0.779547 0.220052 255 255 255 255 
-0.0683297 0.0313183 0.137485 0.752592 0.129827 0.645562 255 255 255 255 
0.0931356 0.17827 -0.130273 -0.626592 -0.0395325 0.778344 255 255 255 255 
-0.213332 -0.0883226 0.0670836 -0.299203 0.921314 0.248312 255 255 255 255 
-0.0984752 -0.143686 0.181342 0.715866 0.0370695 0.697253 255 255 255 255 
0.0835958 -0.184987 -0.201458 0.922128 0.251776 -0.293748 255 255 255 255 
0.246983 -0.0739668 -0.25041 0.831489 0.025366 0.554962 255 255 255 255 
-0.273293 -0.158915 -0.00494018 -0.842174 0.134198 -0.522239 255 255 255 255 
0.18994 0.0370962 -0.188153 0.8064 0.127107 0.577548 255 255 255 255 
0.0919479 -0.244843 -0.0372769 0.772738 -0.153823 0.615804 255 255 255 255 
0.080912 0.104317 -0.162518 -0.418493 -0.677191 0.605207 255 255 255 255 
0.0787318 -0.11954 -0.133994 -0.67554 0.0129235 -0.73721 255 255 255 255 
-0.0877566 -0.221732 0.0373138 -0.040335 -0.997485 -0.0582878 255 255 255 255 
-0.0391574 -0.112866 -0.193759 -0.311932 0.920739 -0.234388 255 255 255 255 
0.192403 0.237273 -0.0639801 0.680105 0.137661 -0.720074 255 255 255 255 
0.144192 0.0490825 -0.219539 -0.76209 0.0334672 -0.646606 255 255 255 255 
0.15231 0.0845903 -0.227541 -0.729851 0.0217562 -0.68326 255 255 255 255 
-0.0279708 0.0931727 0.0770079 0.76463 0.0872999 0.638529 255 255 255 255 
-0.0576562 -0.120856 -0.151283 -0.535853 0.760534 0.366674 255 255 255 255 
0.0488513 -0.281875 -0.149553 0.552167 -0.803646 0.221958 255 255 255 255 
0.0379776 -0.256999 0.204684 0.255497 -0.964809 0.0621706 255 255 255 255 
-0.282324 -0.2087 0.0490809 -0.977316 -0.21112 0.0168036 255 255 255 255 
-0.149364 -0.044964 0.150932 0.471294 0.367332 -0.801841 255 255 255 255 
-0.145217 -0.0406895 0.23163 0.70254 0.052863 0.709678 255 255 255 255 
-0.113234 -0.146324 0.107834 0.536164 0.680752 0.499104 255 255 255 255 
-0.0938933 -0.0958598 0.163724 0.516772 0.514147 -0.684544 255 255 255 255 
-0.0427198 0.0992297 0.0820909 0.412208 0.758078 0.505373 255 255 255 255 
0.153995 0.0630652 -0.14602 0.798151 0.0934072 0.595172 255 255 255 255 
-0.0739382 0.0214384 0.137754 0.554809 -0.813797 0.172981 255 255 255 255 
0.0399944 0.0418725 -0.0481798 0.33992 -0.886732 0.313306 255 255 255 255 
-0.240506 -0.183674 -0.0424625 -0.630001 0.000449055 -0.776594 255 255 255 255 
0.106263 -0.254131 -0.054336 -0.415457 -0.894503 -0.165109 255 255 255 255 
-0.0963852 -0.228608 -0.220487 -0.815033 -0.226927 -0.533128 255 255 255 255 
0.197559 0.0588035 -0.201875 0.821248 0.143976 0.552108 255 255 255 255 
0.243805 -0.022162 -0.265072 0.753317 0.246434 -0.60974 255 255 255 255 
-0.0919359 -0.217038 0.0107859 0.840607 -0.497898 -0.213254 255 255 255 255 
-0.0510206 -0.221555 0.0345755 -0.0301758 -0.999387 -0.0177447 255 255 255 255 
0.222394 -0.170696 0.0865102 -0.0687849 0.126429 0.989588 255 255 255 255 
0.0547912 -0.193241 -0.126464 -0.638151 -0.105012 -0.762716 255 255 255 255 
0.128785 -0.117031 0.00218613 -0.583013 0.805294 0.107686 255 255 255 255 
-0.0253011 0.0987822 0.0688387 0.261567 0.872887 0.411888 255 255 255 255 
0.0898659 -0.227398 0.164752 0.890553 -0.29473 -0.346483 255 255 255 255 
-0.0948795 -0.129587 0.101032 -0.697268 0.276272 -0.661431 255 255 255 255 
0.121816 0.169614 -0.109723 0.73684 0.0220811 0.675707 255 255 255 255 
0.105652 -0.137746 -0.148396 -0.0372497 0.0219699 -0.999064 255 255 255 255 
0.110736 -0.155761 0.230627 0.961202 -0.193444 0.196649 255 255 255 255 
0.00231404 -0.23654 0.133834 -0.0527226 -0.839265 -0.54116 255 255 255 255 
-0.102715 -0.0567852 0.170584 0.888111 -0.0569136 0.456091 255 255 255 255 
0.11438 -0.239994 -0.0590372 0.872427 -0.226871 0.432897 255 255 255 255 
0.147756 -0.106957 -0.0318243 -0.448018 0.868824 -0.210771 255 255 255 255 
0.0349206 -0.129432 -0.103023 -0.0364462 0.598467 0.800318 255 255 255 255 
0.0927322 0.153447 -0.0862807 -0.0988274 0.928006 0.359218 255 255 255 255 
-0.156723 -0.169735 0.134818 0.191433 0.0962157 0.976778 255 255 255 255 
0.0361935 -0.0979678 0.0074569 0.751265 0.134363 0.646179 255 255 255 255 
0.0160072 0.104145 0.0240769 0.766554 0.100449 0.634275 255 255 255 255 
0.245002 -0.0145299 -0.262144 0.675925 0.290521 -0.677291 255 255 255 255 
-0.0734842 -0.12101 0.21804 -0.874777 0.412336 0.25445 255 255 255 255 
-0.158443 -0.127659 0.238094 -0.641383 -0.361078 0.676943 255 255 255 255 
-0.140673 -0.20778 0.166112 -0.655842 -0.745216 -0.120515 255 255 255 255 
-0.129328 0.0616893 0.198647 -0.295348 0.869792 0.395261 255 255 255 255 
-0.0661416 -0.292183 -0.205827 -0.772056 -0.63259 -0.0613162 255 255 255 255 
-0.0310651 -0.293522 -0.220047 0.0543853 -0.833228 -0.550249 255 255 255 255 
0.00353582 0.244794 -0.211859 0.624328 0.250721 -0.739833 255 255 255 255 
0.0727605 -0.229397 0.134974 0.817567 -0.269479 -0.508887 255 255 255 255 
-0.0957671 -0.0955065 0.174901 0.758226 0.0287558 0.651358 255 255 255 255 
0.0849397 -0.118075 -0.0464906 0.742676 0.172856 0.646957 255 255 255 255 
0.0250896 -0.11907 -0.118681 0.455698 0.880002 0.133927 255 255 255 255 
-0.204297 -0.154167 0.13824 -0.220301 0.29441 0.929941 255 255 255 255 
-0.171953 -0.162278 0.204272 -0.521329 -0.520565 0.676186 255 255 255 255 
0.127576 -0.120215 -0.14314 0.124531 -0.0128194 -0.992133 255 255 255 255 
0.12859 0.154119 -0.11643 0.747098 0.0244612 0.664264 255 255 255 255 
0.142807 0.157103 -0.160834 0.350653 0.826697 -0.440017 255 255 255 255 
-0.0136037 -0.264458 -0.088265 0.123567 -0.356921 0.925926 255 255 255 255 
0.0978982 -0.17019 0.258023 0.86502 -0.289015 0.410134 255 255 255 255 
0.209516 -0.149415 -0.279324 -0.613903 -0.16037 -0.772919 255 255 255 255 
0.110015 -0.173041 0.217069 0.971893 -0.20198 0.120948 255 255 255 255 
0.165507 -0.0981115 -0.15463 0.737444 -0.0540912 0.673239 255 255 255 255 
0.101922 -0.118873 0.240469 0.729576 0.678011 0.0895513 255 255 255 255 
0.10522 -0.160835 0.249175 0.913188 -0.250531 0.321437 255 255 255 255 
0.108069 -0.154197 0.245616 0.93567 -0.226128 0.270903 255 255 255 255 
0.104328 -0.122533 0.255087 0.686999 0.712915 0.140661 255 255 255 255 
0.121028 -0.125632 -0.145821 0.0396098 0.00230896 -0.999213 255 255 255 255 
0.100057 -0.117283 0.24811 0.693705 0.708123 0.13166 255 255 255 255 
0.0828108 -0.159271 0.280294 0.380806 -0.12655 0.915954 255 255 255 255 
0.0831494 -0.122643 0.280113 0.228111 0.199936 0.952886 255 255 255 255 
0.0688623 -0.105441 0.270383 0.426217 0.805846 0.411038 255 255 255 255 
0.243815 -0.175095 -0.097459 0.594528 -0.20097 -0.778555 255 255 255 255 
0.231814 -0.19147 -0.100537 0.510909 -0.253053 -0.821545 255 255 255 255 
-0.106707 -0.0356217 0.173803 0.929008 -0.124157 0.348612 255 255 255 255 
0.145359 -0.105537 -0.0164569 -0.45487 0.889885 -0.0346101 255 255 255 255 
-0.179127 -0.147341 0.208081 -0.5802 -0.447746 0.680362 255 255 255 255 
0.115756 -0.150096 -0.153649 -0.183463 -0.0100139 -0.982976 255 255 255 255 
0.0839027 -0.113275 0.275669 0.540665 0.78822 0.293923 255 255 255 255 
0.210859 -0.201324 -0.107934 0.367993 -0.304769 -0.878463 255 255 255 255 
0.120665 -0.17167 -0.162943 -0.377016 -0.103784 -0.920374 255 255 255 255 
0.0755164 -0.111846 0.27715 0.194595 0.332108 0.92295 255 255 255 255 
0.199635 -0.205856 -0.110316 0.233034 -0.359922 -0.903411 255 255 255 255 
0.150423 -0.179276 -0.144715 0.971863 -0.0210368 0.234605 255 255 255 255 
0.180536 -0.202412 -0.116051 0.0586177 -0.436139 -0.897968 255 255 255 255 
0.130385 -0.177223 -0.166463 -0.374957 -0.127215 -0.918272 255 255 255 255 
0.152456 -0.178583 -0.152784 0.973608 -0.0269414 0.22663 255 255 255 255 
0.129798 -0.165562 -0.165128 -0.338515 -0.0960938 -0.936041 255 255 255 255 
0.115596 -0.165074 -0.161147 -0.396866 -0.0751668 -0.914794 255 255 255 255 
0.237218 -0.182448 -0.0997272 0.540764 -0.228619 -0.809511 255 255 255 255 
0.127379 0.170395 -0.115757 0.743022 0.0242463 0.668827 255 255 255 255 
0.030224 -0.0979229 0.0144058 0.752802 0.130254 0.645231 255 255 255 255 
-0.136247 -0.206793 0.180441 -0.224177 -0.843724 0.487724 255 255 255 255 
0.0816783 -0.106309 -0.0457979 0.738069 0.188219 0.647942 255 255 255 255 
-0.164896 -0.163138 0.175781 -0.882681 -0.114233 -0.455879 255 255 255 255 
0.11095 -0.166544 0.200179 0.988707 -0.142753 -0.0456014 255 255 255 255 
0.130395 -0.134486 -0.102444 0.795106 0.0803139 0.60113 255 255 255 255 
0.247614 -0.165994 -0.0910162 0.767275 0.411101 -0.492225 255 255 255 255 
0.118372 -0.137863 -0.150038 -0.0664094 0.00254674 -0.997789 255 255 255 255 
0.221673 -0.196605 -0.104878 0.445531 -0.275924 -0.851685 255 255 255 255 
0.142199 -0.187464 -0.15339 0.161537 -0.51889 -0.83944 255 255 255 255 
0.137495 -0.17334 -0.168589 -0.350153 -0.122143 -0.928695 255 255 255 255 
0.0144389 -0.103907 0.0335885 0.758381 0.126838 0.639351 255 255 255 255 
0.138692 -0.135119 -0.115464 0.797382 0.0588459 0.600599 255 255 255 255 
0.152082 -0.194405 -0.139602 0.120819 -0.516338 -0.84782 255 255 255 255 
0.127189 -0.155776 -0.161816 -0.284348 -0.0665755 -0.956407 255 255 255 255 
0.147292 -0.120863 -0.131764 0.780134 -1.53684e-005 0.625612 255 255 255 255 
0.151073 -0.186835 -0.142202 0.970634 -0.0334476 0.238226 255 255 255 255 
0.140698 -0.122221 -0.12129 0.787531 0.0272156 0.615673 255 255 255 255 
0.147289 -0.202473 -0.125472 0.962991 -0.068497 0.260684 255 255 255 255 
0.154307 -0.117071 -0.142298 0.764167 -0.0277157 0.644423 255 255 255 255 
0.151173 -0.110999 -0.137879 0.770967 -0.022925 0.636462 255 255 255 255 
0.12546 -0.145589 -0.15518 -0.15706 -0.0256101 -0.987257 255 255 255 255 
0.132883 -0.129405 -0.147623 0.00766014 -0.00626556 -0.999951 255 255 255 255 
0.134839 -0.151467 -0.159809 -0.201121 -0.0542375 -0.978064 255 255 255 255 
0.136973 -0.137009 -0.151842 -0.0702519 -0.0145599 -0.997423 255 255 255 255 
0.163972 -0.109603 -0.154144 0.737255 -0.0547096 0.673396 255 255 255 255 
0.149656 -0.130443 -0.152851 -0.0606364 -0.0222346 -0.997912 255 255 255 255 
0.15361 -0.157987 -0.149754 0.960836 -0.0206769 0.276344 255 255 255 255 
0.170864 -0.126536 -0.164049 0.699922 -0.0888202 0.708675 255 255 255 255 
0.162212 -0.14226 -0.156923 0.756777 -0.06329 0.650602 255 255 255 255 
0.183117 -0.127784 -0.174903 0.687223 -0.109072 0.718212 255 255 255 255 
0.157815 -0.150118 -0.153402 0.832845 -0.0462981 0.551567 255 255 255 255 
0.16588 -0.119277 -0.157575 0.72858 -0.0661366 0.681761 255 255 255 255 
0.16406 -0.131063 -0.157347 0.745642 -0.0644691 0.66322 255 255 255 255 
0.14206 -0.135982 -0.12248 0.796105 0.0299557 0.604417 255 255 255 255 
0.143274 -0.166402 -0.166741 -0.287034 -0.0929744 -0.953398 255 255 255 255 
0.148777 -0.140108 -0.134319 0.803352 -0.00213089 0.595501 255 255 255 255 
0.138749 -0.159026 -0.16439 -0.264694 -0.0789985 -0.961091 255 255 255 255 
0.153203 -0.119822 -0.148863 0.00239776 -0.0212445 -0.999771 255 255 255 255 
0.15216 -0.149067 -0.141484 0.867812 -0.0175531 0.496582 255 255 255 255 
0.158519 -0.133245 -0.150269 0.76728 -0.0454253 0.639702 255 255 255 255 
0.155065 -0.141167 -0.145944 0.798513 -0.0326722 0.60109 255 255 255 255 
0.189213 -0.142346 -0.186541 -0.398299 -0.810589 0.429306 255 255 255 255 
0.14906 -0.158732 -0.165904 -0.245847 -0.078129 -0.966155 255 255 255 255 
0.14101 -0.144865 -0.118842 0.822762 0.0418125 0.566846 255 255 255 255 
0.168316 -0.149393 -0.170237 -0.233621 -0.0733075 -0.96956 255 255 255 255 
0.144664 -0.142491 -0.126743 0.816488 0.0163602 0.577131 255 255 255 255 
0.155319 -0.168943 -0.162954 0.0486621 -0.41103 -0.910322 255 255 255 255 
0.161664 -0.159399 -0.167698 -0.134639 -0.203103 -0.969856 255 255 255 255 
0.176461 -0.150107 -0.171671 -0.182612 -0.136796 -0.973622 255 255 255 255 
0.155507 -0.150864 -0.166455 -0.195259 -0.105095 -0.975105 255 255 255 255 
0.144082 -0.124097 -0.148935 0.00207824 -0.0229093 -0.999735 255 255 255 255 
0.160593 -0.11874 -0.151337 0.751225 -0.0493198 0.658201 255 255 255 255 
0.145317 -0.129588 -0.129174 0.792433 0.00414142 0.609945 255 255 255 255 
