ply
format ascii 1.0
comment VCGLIB generated
element vertex 635
property float x
property float y
property float z
property float nx
property float ny
property float nz
property uchar red
property uchar green
property uchar blue
property uchar alpha
element face 0
property list uchar int vertex_indices
end_header
0.0264223 0.16101 0.175974 -0.180654 0.501587 0.677313 0 0 0 255 
-0.0659203 -0.193094 0.175974 0.179967 -0.514502 0.703711 0 0 0 255 
-0.0731958 -0.251892 0.175974 0.0028318 -0.15563 0.705527 0 0 0 255 
-0.316982 -0.00815586 -0.137971 -0.691809 0.52211 -0.147786 0 0 0 255 
0.125855 -0.130571 -0.0379854 0.455707 -0.819588 -0.102902 0 0 0 255 
0.290222 0.220974 0.175974 0.534468 0.442526 0.614794 0 0 0 255 
0.249182 0.00723967 0.175974 0.481904 0.195761 0.682364 0 0 0 255 
0.216459 -0.20912 0.175974 0.0295394 -0.682715 0.710125 0 0 0 255 
-0.0740924 -0.32054 0.0993062 -0.0271656 -0.995698 0.0488698 0 0 0 255 
-0.316982 -0.0152804 0.00156492 -0.713258 0.200639 -0.0300573 0 0 0 255 
-0.143101 -0.193832 0.0758595 -0.995545 -0.0895693 0.00802902 0 0 0 255 
-0.118184 -0.0631232 0.175974 -0.201792 -0.423608 0.710976 0 0 0 255 
0.241697 -0.132424 0.119431 0.26974 -0.168472 -0.947604 0 0 0 255 
0.0483728 -0.21343 -0.0627837 0.964387 -0.0430556 -0.259652 0 0 0 255 
-0.110681 -0.084134 0.175974 -0.168336 -0.51384 0.711103 0 0 0 255 
0.263048 0.0790826 0.175974 0.499772 0.278671 0.659639 0 0 0 255 
-0.168339 -0.139238 -0.0573329 -0.805558 -0.582271 0.0937023 0 0 0 255 
-0.142607 -0.203577 0.153045 -0.967984 -0.0262392 -0.0795254 0 0 0 255 
0.284249 -0.137605 0.175974 0.452825 -0.183464 0.70806 0 0 0 255 
0.22559 0.334655 0.129165 -0.19654 0.98029 -0.017062 0 0 0 255 
-0.103371 -0.271573 -0.128721 -0.384607 -0.214923 -0.775997 0 0 0 255 
-0.142534 -0.244813 0.026786 -0.999863 -0.0133081 0.000522833 0 0 0 255 
-0.0564439 -0.118921 -0.155637 3.55948e-005 -0.0734488 -0.962493 0 0 0 255 
-0.0643054 -0.319295 0.135195 0.000127443 -0.99971 0.0239139 0 0 0 255 
-0.248073 0.0338648 0.113078 -0.213039 0.975298 -0.0329594 0 0 0 255 
-0.0498465 -0.286308 0.175974 0.250046 -0.316543 0.699842 0 0 0 255 
-0.00886466 -0.246538 -0.133135 0.1265 -0.586393 -0.721689 0 0 0 255 
-0.123905 0.0123404 -0.0691084 0.000305056 0.992611 -0.1213 0 0 0 255 
0.0765453 0.276266 0.153866 -0.524421 0.85142 -0.00465464 0 0 0 255 
-0.0335414 0.0246339 0.00922121 0.00104273 0.925141 -0.377276 0 0 0 255 
-0.248721 -0.0808294 0.0120155 -0.192755 -0.977101 0.0823 0 0 0 255 
0.174325 -0.150031 0.0931875 0.513416 -0.149644 -0.844425 0 0 0 255 
0.211615 0.244448 0.175974 0.309505 0.511894 0.621724 0 0 0 255 
-0.247667 0.034598 0.156286 -0.217759 0.975531 -0.0139815 0 0 0 255 
-0.147197 0.0741031 0.130805 -0.515398 0.856103 -0.0269999 0 0 0 255 
-0.180394 -0.00872686 -0.175068 -0.0169369 0.525 -0.810656 0 0 0 255 
0.150572 0.189726 0.0859847 0.250219 0.0145192 -0.96778 0 0 0 255 
-0.186995 -0.00171209 -0.165288 0.000217161 0.923628 -0.265372 0 0 0 255 
0.203006 -0.0226155 0.175974 0.362288 0.181858 0.698785 0 0 0 255 
-0.27745 -0.0785265 0.0087589 -0.0765387 -0.973465 0.0848807 0 0 0 255 
0.0315615 -0.215763 0.175974 0.0733693 -0.694961 0.710175 0 0 0 255 
0.15068 0.214556 0.0903075 0.177744 0.0438716 -0.977081 0 0 0 255 
0.00366151 -0.0886679 0.175974 -0.156825 -0.357051 0.710067 0 0 0 255 
0.0937432 -0.0923408 -0.160325 0.642337 -0.166725 -0.728589 0 0 0 255 
0.148032 0.180607 0.175974 0.151323 0.464286 0.650769 0 0 0 255 
-0.251513 -0.0936072 -0.0999762 -0.163913 -0.974598 0.109877 0 0 0 255 
-0.195254 0.0129138 -0.0643181 -0.000119596 0.992997 -0.118083 0 0 0 255 
0.27002 0.0492771 0.123688 -0.0501868 0.903667 -0.272055 0 0 0 255 
0.0189123 0.00289524 -0.136815 -0.000132577 0.988157 -0.15335 0 0 0 255 
0.0827487 0.280081 0.168536 -0.510022 0.85647 0.000855087 0 0 0 255 
-0.316982 -0.0172363 0.0988203 -0.882351 -0.208948 0.0121349 0 0 0 255 
-0.316982 -0.0679559 -0.140176 -0.669287 -0.351986 -0.119822 0 0 0 255 
0.117522 -0.152306 0.175974 -0.0520227 -0.48784 0.709591 0 0 0 255 
0.27106 0.197558 0.175974 0.487995 0.42295 0.624729 0 0 0 255 
-0.148001 -0.0827826 -0.162009 -0.292022 -0.0852772 -0.709225 0 0 0 255 
-0.0869349 0.109122 0.0717177 -0.222065 0.388061 -0.830438 0 0 0 255 
0.0390754 0.05029 0.0478993 -0.00234747 0.629879 -0.776689 255 255 255 255 
0.1042 -0.0889816 -0.126601 0.984352 -0.04018 -0.171574 255 255 255 255 
-0.110226 -0.229811 -0.140034 -0.434273 -0.193876 -0.87967 255 255 255 255 
0.0224743 -0.23787 0.0858933 0.231073 -0.971565 0.0516444 255 255 255 255 
-0.217852 -0.102786 -0.104652 -0.399601 -0.907067 0.13247 255 255 255 255 
0.236413 0.250497 0.179395 0.442625 0.566236 0.695312 255 255 255 255 
0.0706317 -0.022285 0.180383 -0.299218 0.0602729 0.952279 255 255 255 255 
0.025993 0.0838677 0.182335 -0.230439 0.498296 0.835822 255 255 255 255 
0.0610165 -0.202707 0.167705 0.0266683 -0.701344 0.712324 255 255 255 255 
-0.149191 0.0220906 0.00998892 -0.00158914 0.962562 -0.271057 255 255 255 255 
-0.0115805 0.207199 0.151544 -0.709236 0.704943 -0.00631584 255 255 255 255 
-0.0960001 0.0929554 0.174724 -0.478724 0.470564 0.74121 255 255 255 255 
-0.0628016 -0.18142 -0.146502 -0.00224574 -0.203191 -0.979136 255 255 255 255 
0.0403709 -0.194386 -0.111516 0.984797 -0.0278452 -0.171462 255 255 255 255 
0.0174037 -0.240791 0.0605437 0.192639 -0.979449 0.0597506 255 255 255 255 
0.172613 0.185802 0.180848 0.287056 0.55587 0.780133 255 255 255 255 
0.307719 -0.129649 0.166715 0.594865 -0.16396 0.786926 255 255 255 255 
-0.305152 -0.00605446 -0.15634 -0.645294 0.310977 -0.697774 255 255 255 255 
0.0791399 0.0508851 0.0617706 0.27772 0.691355 -0.667008 255 255 255 255 
0.0401378 -0.234869 -0.0974113 0.976429 -0.036156 -0.212791 255 255 255 255 
-0.113815 -0.141023 -0.151677 -0.123723 -0.0173226 -0.992166 255 255 255 255 
0.226208 -0.0470253 0.178315 0.524167 0.153789 0.837614 255 255 255 255 
-0.00181688 0.0363846 0.0330455 0.00144969 0.765835 -0.643035 255 255 255 255 
-0.123317 -0.29952 -0.126757 -0.548989 -0.395157 -0.73652 255 255 255 255 
-0.271601 0.0281936 0.102791 -0.15929 0.9865 -0.0380151 255 255 255 255 
0.00281579 -0.122404 0.18193 -0.107512 -0.620877 0.776501 255 255 255 255 
0.263477 -0.0505579 0.179617 0.603477 0.134606 0.785937 255 255 255 255 
0.13084 0.036162 0.0624141 0.384434 0.66426 -0.641069 255 255 255 255 
-0.318461 -0.0175389 0.156348 -0.970035 -0.242927 0.00435801 255 255 255 255 
-0.0141197 -0.316235 0.145444 0.4423 -0.895595 0.0477511 255 255 255 255 
0.0549875 -0.205778 -0.0408975 0.939882 -0.0636014 -0.335524 255 255 255 255 
0.323408 0.319664 0.155899 0.56364 0.58059 0.587559 255 255 255 255 
0.189606 0.0567787 0.179388 0.414218 0.342049 0.843461 255 255 255 255 
0.0581304 -0.235228 0.0494588 0.153279 -0.985859 0.0677321 255 255 255 255 
0.287646 0.0630076 0.168002 0.618103 0.265035 0.740071 255 255 255 255 
-0.319749 0.00623737 -0.00547048 -0.817197 0.573092 -0.0612698 255 255 255 255 
0.120873 -0.224891 0.0897668 0.131937 -0.991231 0.00728479 255 255 255 255 
0.207376 -0.216783 0.143451 0.0892411 -0.995313 -0.0372661 255 255 255 255 
-0.269987 -0.0739211 0.0683704 -0.100874 -0.993158 0.0588324 255 255 255 255 
0.0605899 -0.0306893 -0.143103 0.102027 0.771133 -0.628446 255 255 255 255 
0.0959712 0.288411 0.154512 -0.48364 0.875205 -0.0104132 255 255 255 255 
0.218386 0.212479 0.111788 0.292517 -0.163568 -0.942167 255 255 255 255 
-0.0765988 0.0163815 -0.0177733 -0.000490662 0.975166 -0.221476 255 255 255 255 
-0.0010792 -0.309047 0.0039638 0.975762 -0.218833 0.00089033 255 255 255 255 
0.152257 -0.0456569 -0.0279647 0.79388 -0.0753352 -0.60339 255 255 255 255 
0.181462 0.277167 0.17975 0.178898 0.657343 0.732049 255 255 255 255 
-0.117274 -0.16885 -0.148119 -0.246099 -0.148726 -0.957766 255 255 255 255 
0.0580466 -0.13224 -0.148961 0.413132 -0.320496 -0.852411 255 255 255 255 
-0.0671081 -0.160015 -0.150808 0.00614767 -0.153869 -0.988072 255 255 255 255 
0.238318 0.0623445 0.144332 0.196755 -0.144704 -0.969715 255 255 255 255 
0.00598127 -0.263226 0.145891 0.969121 -0.120128 0.215345 255 255 255 255 
-0.0556887 -0.00223926 -0.167433 -9.09226e-005 0.977483 -0.211016 255 255 255 255 
0.137695 -0.0646238 0.179777 0.10029 0.0377558 0.994242 255 255 255 255 
-0.0803695 -0.327606 0.00699693 -0.0127252 -0.99524 0.0966218 255 255 255 255 
0.300346 -0.0193942 0.16643 0.656098 0.141214 0.741346 255 255 255 255 
0.308173 -0.0594087 0.165093 0.663301 0.116772 0.739186 255 255 255 255 
0.0676362 0.22447 0.184624 -0.327794 0.608697 0.722522 255 255 255 255 
0.0834822 0.0350374 0.0410751 0.0658866 0.929337 -0.363308 255 255 255 255 
0.298399 0.196754 0.175217 0.580147 0.461188 0.671368 255 255 255 255 
0.202105 -0.118576 0.102843 0.398506 -0.189789 -0.897314 255 255 255 255 
-0.0526466 0.157876 0.158455 -0.748911 0.657798 -0.0802057 255 255 255 255 
-0.22141 0.0393217 0.102247 -0.250729 0.968057 -0.000893918 255 255 255 255 
0.0253317 0.223539 0.0954032 -0.280345 0.488834 -0.826104 255 255 255 255 
0.224554 0.000731504 0.0733331 0.0486692 0.948825 -0.312031 255 255 255 255 
0.0215064 -0.251327 -0.0245411 0.325223 -0.944055 0.0546831 255 255 255 255 
-0.142432 -0.295121 0.0245173 -0.98262 -0.185128 0.013595 255 255 255 255 
-0.151387 -0.149591 -0.141545 -0.381081 -0.159077 -0.910753 255 255 255 255 
-0.000833998 -0.290047 0.110876 0.969502 -0.242589 0.0348812 255 255 255 255 
-0.0639475 -0.323026 0.0709642 0.00507582 -0.997908 0.0644447 255 255 255 255 
0.105849 -0.0430098 -0.120343 0.972656 -0.00936654 -0.232061 255 255 255 255 
0.170659 -0.0274173 0.176675 0.165908 0.0762965 0.983185 255 255 255 255 
-0.103852 -0.161904 0.166162 -0.0365156 -0.68802 0.724773 255 255 255 255 
-0.0909566 -0.338271 -0.11404 -0.0248645 -0.822537 -0.568168 255 255 255 255 
0.0200362 -0.235107 0.175973 0.324278 -0.945955 0.00350383 255 255 255 255 
-0.245265 -0.0712221 -0.168473 -0.439068 0.0972762 -0.893172 255 255 255 255 
-0.319143 -0.030246 -0.101666 -0.985558 0.16539 -0.0363657 255 255 255 255 
0.323202 -0.01076 0.131642 0.933933 0.231608 -0.272263 255 255 255 255 
-0.141757 -0.29478 0.0944087 -0.98669 -0.141667 0.0798345 255 255 255 255 
-0.107489 0.104232 0.106412 -0.653002 0.750493 -0.101727 255 255 255 255 
-0.305595 -0.0717922 0.0962143 -0.101827 -0.99349 0.0510803 255 255 255 255 
0.00165194 -0.268529 -0.108959 0.46053 -0.884567 0.073843 255 255 255 255 
-0.318325 0.000348584 0.0835355 -0.997983 0.0628421 -0.00898827 255 255 255 255 
-0.113333 -0.281885 0.189788 -0.53205 -0.414664 0.738225 255 255 255 255 
-0.211434 -0.0769862 0.177382 -0.228403 -0.616372 0.753603 255 255 255 255 
-0.0780762 -0.112078 -0.156277 -0.0210363 -0.0515034 -0.998451 255 255 255 255 
0.101709 -0.104081 -0.141003 0.987037 -0.0371477 -0.156132 255 255 255 255 
-0.00232085 0.00204599 -0.143893 0.00556523 0.986345 -0.164599 255 255 255 255 
0.193025 0.0547434 0.128452 0.182303 0.724496 -0.664734 255 255 255 255 
0.175149 -0.0578017 0.17729 0.140372 0.0611154 0.988211 255 255 255 255 
-0.125272 0.0233011 0.0114202 0.00338823 0.940678 -0.339283 255 255 255 255 
0.0270379 0.00459804 -0.121844 0.0486777 0.985246 -0.164077 255 255 255 255 
-0.116312 0.035068 0.0318031 0.0228997 0.788872 -0.61413 255 255 255 255 
-0.316383 -0.0483373 0.0480732 -0.920187 -0.390852 0.0221303 255 255 255 255 
0.0843552 -0.198668 0.0150799 0.836945 -0.0988001 -0.538295 255 255 255 255 
-0.267217 -0.027252 0.183666 -0.071221 -0.416894 0.90616 255 255 255 255 
-0.107492 0.00621693 -0.115516 -0.000379022 0.989805 -0.142428 255 255 255 255 
-0.261219 -0.0605505 -0.160632 -0.443663 0.104124 -0.890124 255 255 255 255 
0.196917 -0.0975141 0.0227515 0.549374 -0.163328 -0.819458 255 255 255 255 
-0.0190216 0.170633 0.175624 -0.417169 0.552483 0.721618 255 255 255 255 
0.136052 0.300874 0.114221 -0.171455 0.564858 -0.807179 255 255 255 255 
0.276894 0.00421213 0.0848921 0.279481 0.786982 -0.550045 255 255 255 255 
-0.196111 -0.0947821 0.157164 -0.546715 -0.837153 0.016676 255 255 255 255 
-0.00136058 0.217135 0.167612 -0.685895 0.727021 0.0314462 255 255 255 255 
-0.149842 -0.158621 0.0623888 -0.951033 -0.307994 0.0260018 255 255 255 255 
0.168812 0.0436484 0.194053 0.4106 0.342818 0.844916 255 255 255 255 
-0.122288 0.089704 0.134772 -0.584669 0.8105 -0.0353938 255 255 255 255 
-0.0231774 -0.225054 0.180988 0.476843 -0.383691 0.790824 255 255 255 255 
-0.0198037 -0.336766 -0.0756569 0.0475391 -0.988079 0.146421 255 255 255 255 
0.149486 0.240218 0.0933946 0.0860597 0.129946 -0.987779 255 255 255 255 
0.144669 0.142508 0.0901918 0.46698 -0.161295 -0.869433 255 255 255 255 
-0.284263 -0.0920045 -0.106415 -0.15428 -0.979818 0.127097 255 255 255 255 
-0.282927 -0.0848378 -0.0496996 -0.176729 -0.97688 0.120298 255 255 255 255 
0.0739568 -0.23384 0.0368593 0.152799 -0.985493 0.0738691 255 255 255 255 
-0.0472367 -0.175545 0.174583 0.0315771 -0.67376 0.738275 255 255 255 255 
0.152901 -0.220825 0.107283 0.100933 -0.994733 0.0178354 255 255 255 255 
-0.168357 -0.0706186 -0.160737 -0.3586 -0.0586995 -0.931644 255 255 255 255 
-0.324094 -0.00285189 -0.042756 -0.806694 0.587591 -0.0631044 255 255 255 255 
-0.264689 -0.0830919 -0.0347011 -0.202381 -0.972971 0.111219 255 255 255 255 
-0.318449 -0.0395485 0.113834 -0.902319 -0.430804 0.0151027 255 255 255 255 
-0.233566 0.00586354 -0.1184 -0.0019367 0.988878 -0.148715 255 255 255 255 
0.122149 -0.113835 -0.057085 0.907782 -0.195299 -0.371202 255 255 255 255 
-0.167003 0.0615321 0.0937685 -0.433433 0.900864 -0.0240952 255 255 255 255 
0.082742 0.117145 0.0745077 0.047701 0.197863 -0.979068 255 255 255 255 
-0.188644 -0.123626 -0.11611 -0.649589 -0.752013 0.111853 255 255 255 255 
0.163764 -0.122552 0.00967768 0.418864 -0.864044 -0.279249 255 255 255 255 
0.00265843 -0.297888 -0.0660049 0.990812 -0.135248 0.000629664 255 255 255 255 
0.272165 -0.152084 0.184391 0.566443 -0.176832 0.804906 255 255 255 255 
-0.040489 -0.327984 0.00524896 0.0605034 -0.992948 0.101945 255 255 255 255 
0.127872 -0.222712 0.142341 0.105756 -0.993881 0.0318684 255 255 255 255 
0.0781281 -0.00455998 -0.0487685 0.562939 0.719994 -0.405843 255 255 255 255 
-0.198686 -0.0947762 0.104867 -0.605604 -0.795249 0.0286934 255 255 255 255 
0.0357115 -0.234396 -0.125193 0.97575 -0.0332928 -0.216341 255 255 255 255 
-0.0694203 -0.310359 0.183293 -0.0607832 -0.690096 0.721161 255 255 255 255 
0.00109465 -0.28115 0.00199383 0.978811 -0.204741 0.00307167 255 255 255 255 
0.2125 0.0232877 0.0890836 0.117424 0.845995 -0.520101 255 255 255 255 
0.101596 -0.225263 0.158004 0.122375 -0.991947 0.0326549 255 255 255 255 
0.175584 0.0135729 0.0512017 0.400848 0.561031 -0.724268 255 255 255 255 
-0.298922 0.00963742 -0.116643 -0.327334 0.935931 -0.129943 255 255 255 255 
0.0761758 0.228874 0.089919 -0.156095 0.379261 -0.912028 255 255 255 255 
0.0611906 -0.0551454 -0.159829 0.35308 -0.0454491 -0.934489 255 255 255 255 
-0.313904 0.0123337 -0.0570313 -0.688849 0.720259 -0.0819452 255 255 255 255 
-0.251546 -0.0901097 -0.0814119 -0.198887 -0.971391 0.129785 255 255 255 255 
-0.104111 -0.0453639 0.185578 -0.248733 -0.470591 0.846567 255 255 255 255 
-0.0189758 0.199784 0.123018 -0.717953 0.694217 -0.0510495 255 255 255 255 
-0.258269 0.0288803 0.0672576 -0.150975 0.987162 -0.0521322 255 255 255 255 
-0.0831034 -0.319983 0.129074 -0.0341947 -0.998694 0.0379633 255 255 255 255 
-0.275613 -0.0626474 0.17122 -0.130476 -0.501935 0.855007 255 255 255 255 
-0.145984 -0.244471 -0.113778 -0.885635 -0.116837 -0.449443 255 255 255 255 
0.0490776 -0.146589 -0.0695286 0.906342 -0.350654 -0.235765 255 255 255 255 
0.157925 -0.133771 0.0820507 0.561426 -0.17414 -0.808997 255 255 255 255 
0.194981 0.0233329 0.0773471 0.389418 0.369901 -0.843521 255 255 255 255 
-0.161285 -0.000249323 -0.157662 9.85243e-005 0.982107 -0.188324 255 255 255 255 
0.000916999 -0.292041 0.0430958 0.978799 -0.204183 0.0161842 255 255 255 255 
0.254506 0.233678 0.182048 0.464967 0.552455 0.691808 255 255 255 255 
0.108462 -0.082816 -0.107758 0.970829 -0.0633906 -0.231241 255 255 255 255 
0.310051 -0.0270019 0.0587304 0.788756 0.27078 -0.551853 255 255 255 255 
-0.0775747 0.0106089 -0.083603 -0.000334581 0.992334 -0.123585 255 255 255 255 
-0.0593828 -0.209143 0.169953 0.154937 -0.621266 0.76813 255 255 255 255 
-0.0650572 0.133152 0.0794091 -0.192664 0.332066 -0.92337 255 255 255 255 
-0.135311 -0.211033 0.171826 -0.787973 -0.0337993 0.614781 255 255 255 255 
0.196279 0.239529 0.0994528 0.230232 -0.0686314 -0.970712 255 255 255 255 
0.0957995 -0.160909 0.0255286 0.806723 -0.100086 -0.582393 255 255 255 255 
-0.312969 -0.041307 0.159335 -0.940757 -0.339017 0.00657863 255 255 255 255 
0.27123 -0.00482976 0.0659197 0.185799 0.807772 -0.559449 255 255 255 255 
0.290107 -0.160124 0.175227 0.578247 -0.198244 0.79141 255 255 255 255 
-0.0445569 -0.0669664 0.184585 -0.209851 -0.478436 0.852679 255 255 255 255 
-0.0295121 -0.0659028 -0.166008 0.02664 -0.136973 -0.990216 255 255 255 255 
0.0714456 0.101749 0.181021 -0.166295 0.502185 0.84862 255 255 255 255 
0.258963 0.142316 0.169861 0.542173 0.401564 0.738103 255 255 255 255 
0.0855731 0.0123505 -0.0202634 0.593485 0.679652 -0.431102 255 255 255 255 
-0.148698 0.00941591 -0.0928762 4.13975e-006 0.991822 -0.127629 255 255 255 255 
-0.141834 -0.20754 -0.131811 -0.963162 -0.268876 0.00489049 255 255 255 255 
0.14016 -0.0350289 -0.0455899 0.800391 0.0151245 -0.599288 255 255 255 255 
0.131362 -0.0137311 -0.00936124 0.277748 0.873275 -0.400309 255 255 255 255 
-0.0558964 -0.332528 -0.031802 0.044893 -0.991794 0.119706 255 255 255 255 
0.322529 0.337994 0.137508 0.59167 0.585709 0.55396 255 255 255 255 
0.148959 -0.104913 -0.0194519 0.816153 -0.106552 -0.567927 255 255 255 255 
-0.0346239 -0.324449 0.0470322 0.103467 -0.99166 0.0768373 255 255 255 255 
0.0666067 -0.230246 0.126972 0.132973 -0.990864 0.0224963 255 255 255 255 
0.0180157 -0.236928 0.139978 0.217244 -0.976055 0.0110023 255 255 255 255 
0.000869934 -0.301592 0.153757 0.696113 -0.712408 0.0888922 255 255 255 255 
0.167417 -0.219019 0.127743 0.0898538 -0.995777 0.0188427 255 255 255 255 
-0.267276 0.0299692 0.124882 -0.174482 0.984326 -0.0256492 255 255 255 255 
-0.173599 0.0134299 -0.0599706 9.22518e-005 0.992868 -0.119223 255 255 255 255 
-0.2755 0.0196068 -0.00909697 -0.0740149 0.988809 -0.129531 255 255 255 255 
0.118205 -0.0480214 -0.0815842 0.941365 -0.00598732 -0.337338 255 255 255 255 
0.190971 -0.000849967 0.0611979 0.393943 0.433618 -0.810422 255 255 255 255 
0.115224 0.0967544 0.187031 -0.0970069 0.499599 0.860808 255 255 255 255 
-0.129916 -0.31754 0.0619459 -0.347279 -0.935982 0.0577508 255 255 255 255 
0.238498 0.0385337 0.176881 0.513969 0.291066 0.806918 255 255 255 255 
-0.275847 -0.0739654 -0.163764 -0.459854 -0.241486 -0.854528 255 255 255 255 
0.165051 0.316706 0.164671 -0.211719 0.680678 0.701322 255 255 255 255 
0.214552 -0.206893 0.125283 0.412303 -0.221615 -0.883682 255 255 255 255 
0.271689 0.146175 0.160809 0.546717 0.400493 0.735327 255 255 255 255 
-0.0187863 0.0127601 -0.0663575 0.00162862 0.992495 -0.122274 255 255 255 255 
0.12142 0.274422 0.1013 -0.0684737 0.36581 -0.928167 255 255 255 255 
0.233384 0.0541819 0.1721 0.499434 0.300085 0.81272 255 255 255 255 
-0.232987 -0.0269288 -0.17207 -0.406966 0.167824 -0.897894 255 255 255 255 
0.00458247 -0.244546 0.1597 0.514811 -0.348688 0.78319 255 255 255 255 
0.281638 0.029825 0.110252 0.168568 0.245744 -0.954565 255 255 255 255 
0.137347 0.0278547 0.0438839 0.420024 0.581342 -0.696865 255 255 255 255 
-0.0234588 -0.32559 0.0174457 0.159585 -0.983067 0.0900622 255 255 255 255 
0.112532 0.297346 0.134702 -0.443142 0.895203 -0.0472904 255 255 255 255 
-0.0462204 0.0434036 0.182929 -0.458579 0.306128 0.83426 255 255 255 255 
0.136215 -0.107804 -0.0355292 0.847852 -0.122271 -0.515943 255 255 255 255 
0.0863106 -0.0904382 0.179018 -0.180088 -0.378011 0.908117 255 255 255 255 
-0.0150925 -0.326923 -0.00690422 0.127709 -0.986197 0.105382 255 255 255 255 
0.00126408 -0.302404 -0.0459202 0.985342 -0.170549 0.00368475 255 255 255 255 
0.122545 0.0692724 0.199156 -0.0643657 0.491984 0.868222 255 255 255 255 
0.141811 0.297197 0.167572 -0.228936 0.666531 0.709454 255 255 255 255 
-0.251072 0.0299568 0.0416607 -0.12044 0.985384 -0.120465 255 255 255 255 
0.0155313 0.0569008 0.0537738 0.00300624 0.608896 -0.793245 255 255 255 255 
0.0085713 0.0147681 -0.0476379 0.000539798 0.992536 -0.121953 255 255 255 255 
-0.300249 -0.0759301 0.0266873 -0.0768021 -0.994238 0.0747878 255 255 255 255 
-0.0468436 0.0333097 0.0284934 0.000608475 0.864443 -0.50273 255 255 255 255 
-0.0942904 -0.31707 -0.131358 -0.235565 -0.666541 -0.707271 255 255 255 255 
0.117832 -0.179858 0.0549264 0.707347 -0.11861 -0.696844 255 255 255 255 
0.303873 0.296483 0.111741 0.0886464 -0.147131 -0.985137 255 255 255 255 
0.284233 0.19126 0.165098 0.563793 0.444195 0.696296 255 255 255 255 
0.161282 0.163976 0.195751 0.275078 0.5546 0.785335 255 255 255 255 
-0.145371 -0.172561 0.12605 -0.960316 -0.278887 0.00387392 255 255 255 255 
0.229436 -0.0848583 0.0384419 0.38519 -0.203838 -0.900044 255 255 255 255 
-0.167903 -0.146885 -0.125872 -0.789334 -0.606805 0.0934823 255 255 255 255 
0.159289 -0.166247 0.0872564 0.572251 -0.146553 -0.806877 255 255 255 255 
-0.135531 0.0666775 0.17123 -0.484106 0.338619 0.806833 255 255 255 255 
0.0312727 -0.249773 -0.0783928 0.513238 -0.853911 0.0861557 255 255 255 255 
0.256871 0.0610837 0.165145 0.534442 0.291985 0.793169 255 255 255 255 
0.0371031 -0.240808 0.0258309 0.17041 -0.982585 0.0740819 255 255 255 255 
0.151746 -0.0148407 0.00101517 0.2811 0.867409 -0.41059 255 255 255 255 
0.207699 0.0639198 0.172137 0.440476 0.331732 0.834227 255 255 255 255 
0.28836 0.121853 0.176058 0.59634 0.368897 0.712947 255 255 255 255 
0.0807468 -0.117998 0.167797 -0.175259 -0.389192 0.90433 255 255 255 255 
-0.036042 -0.123211 -0.155897 0.0295394 -0.152136 -0.987918 255 255 255 255 
0.327992 -0.0296895 0.138719 0.944244 0.218855 -0.24598 255 255 255 255 
0.0775592 0.276845 0.114256 -0.493152 0.868607 -0.0481928 255 255 255 255 
-0.318901 -0.00939537 -0.0652634 -0.963641 0.263654 -0.0433918 255 255 255 255 
0.284911 -0.0825379 0.0537748 0.197301 -0.176258 -0.964368 255 255 255 255 
-0.0815165 0.126893 0.107299 -0.708223 0.702364 -0.0714496 255 255 255 255 
0.0527158 -0.0915901 -0.163832 0.394319 -0.133024 -0.909295 255 255 255 255 
0.29821 0.17418 0.133905 0.129751 -0.169755 -0.976907 255 255 255 255 
-0.302212 0.0261015 0.129768 -0.111003 0.993533 -0.0239013 255 255 255 255 
0.179623 0.0851186 0.120829 0.428707 -0.119245 -0.895539 255 255 255 255 
0.0845182 -0.133687 0.00472168 0.853036 -0.109832 -0.510164 255 255 255 255 
0.0405556 -0.171077 -0.099341 0.982902 -0.094841 -0.157822 255 255 255 255 
-0.288304 -0.0716245 0.141509 -0.120419 -0.992448 0.0233568 255 255 255 255 
-0.203691 -0.0932425 0.0470151 -0.591611 -0.804661 0.0501705 255 255 255 255 
-0.0460184 0.167861 0.116911 -0.751002 0.657201 -0.0638979 255 255 255 255 
-0.175816 -0.11471 0.110188 -0.714964 -0.698673 0.0261327 255 255 255 255 
-0.128354 -0.230957 0.181214 -0.786041 -0.0412245 0.616799 255 255 255 255 
-0.142598 -0.258247 0.17218 -0.747239 -0.0928447 0.658038 255 255 255 255 
-0.186711 0.00596444 -0.118471 -0.000274651 0.988355 -0.152167 255 255 255 255 
0.232598 -0.00297503 0.180751 0.530139 0.218207 0.819352 255 255 255 255 
-0.0722711 0.0603325 0.174716 -0.46705 0.355304 0.809705 255 255 255 255 
0.019071 -0.242188 0.0400987 0.172271 -0.982649 0.0687241 255 255 255 255 
0.0253377 0.0226221 0.00731569 -0.00188318 0.934002 -0.357262 255 255 255 255 
0.188174 -0.136769 0.100256 0.44408 -0.180173 -0.877685 255 255 255 255 
0.0858765 -0.110514 -0.157227 0.595195 -0.221489 -0.772454 255 255 255 255 
-0.15139 -0.160884 0.00387146 -0.930141 -0.364472 0.0446991 255 255 255 255 
0.316387 -0.0517753 0.0573374 0.754671 0.101821 -0.648155 255 255 255 255 
-0.0668596 -0.22827 -0.138104 -0.0311196 -0.263996 -0.964022 255 255 255 255 
-0.0907515 -0.229639 0.163021 0.169084 -0.591104 0.788674 255 255 255 255 
0.206769 -0.164645 0.112741 0.406488 -0.178384 -0.896073 255 255 255 255 
0.0707333 -0.20754 -0.0058281 0.880765 -0.0858475 -0.465707 255 255 255 255 
0.254099 0.21333 0.18559 0.491282 0.519379 0.699205 255 255 255 255 
0.192641 0.0399641 0.0944114 0.152364 0.813752 -0.560885 255 255 255 255 
-0.205597 -0.000270996 -0.157524 2.18949e-006 0.98388 -0.178832 255 255 255 255 
0.104996 -0.0687527 -0.123242 0.979568 -0.0289047 -0.199023 255 255 255 255 
-0.0937133 -0.0988829 -0.157331 -0.0483742 -0.0198335 -0.998632 255 255 255 255 
0.241436 0.0846476 0.160877 0.509717 0.304102 0.804805 255 255 255 255 
0.183008 -0.172917 0.102879 0.478323 -0.169507 -0.86167 255 255 255 255 
-0.168213 -0.132098 -0.0186703 -0.813304 -0.578374 0.0634125 255 255 255 255 
-0.215826 0.0121566 -0.0709889 -9.8209e-005 0.992374 -0.123265 255 255 255 255 
-0.0909518 -0.325173 0.0415458 -0.0591854 -0.995076 0.0795049 255 255 255 255 
0.0466302 -0.100634 0.175807 -0.160436 -0.443395 0.881851 255 255 255 255 
0.0554702 0.25463 0.100503 -0.329644 0.582425 -0.743045 255 255 255 255 
0.306451 0.245516 0.12123 0.0829915 -0.172227 -0.981555 255 255 255 255 
0.216043 0.0782602 0.166238 0.458193 0.324405 0.827539 255 255 255 255 
0.114787 -0.00259535 -0.00462172 0.310563 0.855844 -0.413619 255 255 255 255 
-0.143563 -0.0206066 0.185582 -0.273565 -0.435011 0.857862 255 255 255 255 
0.239692 0.337975 0.141626 -0.168072 0.985442 -0.0256177 255 255 255 255 
0.263185 0.18563 0.164706 0.544311 0.432982 0.718507 255 255 255 255 
0.23746 0.187957 0.122132 0.240358 -0.168323 -0.955979 255 255 255 255 
0.295161 -0.0238504 0.0452933 0.11243 -0.176224 -0.977908 255 255 255 255 
0.247922 -0.0659475 0.0428184 0.321143 -0.177392 -0.930268 255 255 255 255 
0.226596 0.0940974 0.159897 0.481838 0.315763 0.81739 255 255 255 255 
-0.0372456 0.176648 0.155267 -0.748294 0.66031 -0.0636123 255 255 255 255 
0.0988158 -0.1274 -0.0765804 0.361904 -0.929269 0.0740589 255 255 255 255 
0.157264 -0.115442 0.0472299 0.330083 -0.909096 -0.254144 255 255 255 255 
0.0875121 0.0149053 0.182305 -0.225167 0.122246 0.966621 255 255 255 255 
-0.142797 -0.19166 0.0338891 -0.986788 -0.161012 0.0180009 255 255 255 255 
-0.309742 0.0247844 0.082414 -0.0684685 0.996396 -0.0500756 255 255 255 255 
0.119752 -0.018566 0.18347 0.0841789 0.066228 0.994247 255 255 255 255 
-0.244776 0.0350961 0.135636 -0.207337 0.978149 -0.0153477 255 255 255 255 
-0.110762 -0.00659094 -0.163947 -0.0111029 0.516605 -0.856152 255 255 255 255 
-0.14893 -0.158998 0.0896097 -0.957414 -0.288311 0.0153552 255 255 255 255 
-0.315627 -0.00629104 -0.114245 -0.969927 0.238157 -0.0502314 255 255 255 255 
-0.23363 -0.0133284 0.182801 -0.125348 0.281438 0.951357 255 255 255 255 
0.0864165 -0.138474 -0.0917731 0.81789 -0.56972 -0.0804685 255 255 255 255 
-0.267573 -0.0115277 -0.16095 -0.473276 0.202423 -0.857341 255 255 255 255 
0.0194831 -0.245663 0.011046 0.197787 -0.977477 0.0736197 255 255 255 255 
0.211026 -0.0801483 0.0290632 0.465618 -0.180247 -0.866436 255 255 255 255 
0.0371879 0.0162862 -0.0295983 0.0199686 0.984155 -0.176182 255 255 255 255 
-0.0738802 -0.000373011 -0.158492 -0.000100308 0.982722 -0.185085 255 255 255 255 
-0.00610905 -0.0928792 -0.161426 0.0782094 -0.200338 -0.9766 255 255 255 255 
0.160561 0.298713 0.105295 -0.160272 0.586847 -0.793677 255 255 255 255 
0.177345 0.125058 0.1117 0.437079 -0.158647 -0.885321 255 255 255 255 
0.166111 0.0783735 0.182667 0.408336 0.344918 0.845159 255 255 255 255 
0.0339032 0.24744 0.160567 -0.631162 0.774377 0.0444275 255 255 255 255 
-0.055122 0.0235574 0.00862163 -0.00462353 0.909098 -0.416556 255 255 255 255 
-0.134236 -0.320725 -0.0150626 -0.486709 -0.868472 0.0941827 255 255 255 255 
-0.0776965 -0.280984 -0.133187 -0.258728 -0.337337 -0.905132 255 255 255 255 
0.204499 0.205786 0.176041 0.343255 0.557194 0.756116 255 255 255 255 
0.0685486 -0.23304 -0.00441069 0.878459 -0.111401 -0.464649 255 255 255 255 
-0.253002 0.00245996 -0.141627 -4.1671e-005 0.986569 -0.163348 255 255 255 255 
0.00872834 0.0104857 -0.0886522 0.0546618 0.988115 -0.143668 255 255 255 255 
0.0874684 -0.127396 -0.057109 0.415652 -0.909317 0.0194021 255 255 255 255 
0.222631 -0.107801 0.0873585 0.118646 -0.984921 -0.125907 255 255 255 255 
0.0043824 -0.268628 -0.0683919 0.996941 -0.0779835 0.00513576 255 255 255 255 
0.0435543 -0.17989 -0.0775273 0.965809 -0.099791 -0.23928 255 255 255 255 
-0.238479 -0.0805542 0.0289557 -0.200445 -0.976798 0.0754222 255 255 255 255 
-0.108863 -0.139896 0.17028 -0.07802 -0.683448 0.725818 255 255 255 255 
0.0690988 0.272395 0.136884 -0.515464 0.856714 -0.0184002 255 255 255 255 
0.0283812 0.0178104 -0.013109 0.00598049 0.973049 -0.23052 255 255 255 255 
-0.31677 0.00976433 0.0491586 -0.99622 0.0860316 -0.0120001 255 255 255 255 
0.000670261 -0.266225 0.0161494 0.954529 -0.29765 0.0167042 255 255 255 255 
0.237134 0.0375069 0.110943 0.129134 0.821627 -0.555206 255 255 255 255 
0.171147 -0.218337 0.160362 0.0856396 -0.995896 0.0292926 255 255 255 255 
-0.281013 -0.0866587 -0.0695268 -0.143143 -0.981659 0.125919 255 255 255 255 
0.120601 -0.119051 0.0323619 0.403824 -0.875345 -0.265888 255 255 255 255 
-0.143584 -0.281068 -0.0332331 -0.99691 -0.0777431 0.0112291 255 255 255 255 
-0.27204 0.0302199 0.15204 -0.166445 0.985985 0.0113597 255 255 255 255 
-0.0237145 -0.0740115 0.185468 -0.204316 -0.478978 0.853719 255 255 255 255 
0.240077 0.247122 0.112328 0.230431 -0.159172 -0.959982 255 255 255 255 
-0.146504 0.0664055 0.0600216 -0.00864267 0.633151 -0.77398 255 255 255 255 
-0.29742 0.00626849 0.175772 -0.0968483 0.501343 0.859811 255 255 255 255 
0.0379029 0.0669082 0.0602003 0.00372632 0.542218 -0.840229 255 255 255 255 
-0.176768 -0.111671 0.154656 -0.709056 -0.704999 0.0146943 255 255 255 255 
0.31607 0.0231238 0.135451 0.932845 0.233014 -0.274782 255 255 255 255 
0.186078 0.327765 0.141361 -0.279034 0.960079 -0.0196801 255 255 255 255 
0.121761 -0.154379 0.0544519 0.695356 -0.118543 -0.708821 255 255 255 255 
0.273352 0.212876 0.12427 0.134156 -0.17239 -0.97585 255 255 255 255 
-0.320388 -0.010405 0.117774 -0.989885 -0.141845 0.00269797 255 255 255 255 
-0.0912057 0.00284898 -0.138865 -0.000287301 0.987554 -0.157283 255 255 255 255 
-0.0248129 -0.231952 -0.139332 0.116443 -0.398369 -0.909804 255 255 255 255 
0.0534959 0.109988 0.174906 -0.171442 0.506737 0.844882 255 255 255 255 
-0.0773165 0.0214349 0.178811 -0.460799 0.312769 0.830566 255 255 255 255 
-0.0988718 -0.0645528 0.18172 -0.227809 -0.50492 0.832562 255 255 255 255 
-0.142819 -0.190807 0.0100499 -0.989457 -0.143835 0.0169089 255 255 255 255 
-0.122959 -0.256709 -0.131749 -0.50954 -0.206949 -0.835189 255 255 255 255 
0.275863 0.0765819 0.161264 0.576187 0.28546 0.765847 255 255 255 255 
0.0776397 -0.230291 0.0858926 0.139578 -0.989436 0.0391705 255 255 255 255 
-0.16275 -0.148387 -0.0775921 -0.81557 -0.572726 0.0826435 255 255 255 255 
0.281669 0.015552 0.177284 0.6297 0.200178 0.750605 255 255 255 255 
-0.281252 -0.0763136 0.0281047 -0.0871466 -0.993252 0.0765231 255 255 255 255 
0.27654 -0.0656771 0.179168 0.626371 0.122861 0.769782 255 255 255 255 
-0.142705 -0.23178 -0.0292581 -0.999712 -0.0237538 0.0034372 255 255 255 255 
0.0501655 -0.165708 -0.0572879 0.938119 -0.155263 -0.309558 255 255 255 255 
-0.323767 -0.0233277 0.0213529 -0.979615 -0.200715 0.0082095 255 255 255 255 
-0.0163256 -0.091138 0.179916 -0.195825 -0.493634 0.847336 255 255 255 255 
0.31576 -0.112115 0.140607 0.96511 -0.115887 0.234804 255 255 255 255 
-0.0586657 -0.265588 -0.134848 -0.00620617 -0.361021 -0.932537 255 255 255 255 
-0.0670666 -0.335122 -0.0537426 0.0247787 -0.990422 0.135834 255 255 255 255 
0.0111673 -0.110857 -0.159778 0.156508 -0.265514 -0.951319 255 255 255 255 
0.130912 -0.0427997 0.181756 0.0989109 0.0517414 0.99375 255 255 255 255 
-0.195131 -0.0331248 0.183405 -0.259652 -0.517687 0.815219 255 255 255 255 
-0.088589 -0.323958 0.0624348 -0.0717516 -0.995285 0.0652603 255 255 255 255 
0.0198448 -0.254296 -0.0545984 0.40549 -0.91159 0.0676867 255 255 255 255 
0.00711408 0.0185925 -0.00597369 0.000500408 0.956723 -0.291 255 255 255 255 
0.112477 0.249382 0.0943769 -0.0102875 0.250635 -0.968027 255 255 255 255 
0.221579 -0.218245 0.162813 0.0259194 -0.703475 0.710247 255 255 255 255 
-0.142139 -0.162564 0.15942 -0.00584274 -0.659821 0.7514 255 255 255 255 
-0.248706 -0.0130001 -0.166704 -0.439248 0.185797 -0.878943 255 255 255 255 
-0.169991 -0.0528296 -0.16204 -0.350839 -0.0462058 -0.935295 255 255 255 255 
0.107378 0.280415 0.16841 -0.290221 0.651008 0.701399 255 255 255 255 
0.11564 -0.00131579 0.183347 0.0544421 0.0718845 0.995926 255 255 255 255 
-0.141228 -0.168458 -0.142172 -0.349285 -0.160664 -0.92314 255 255 255 255 
0.170847 0.0615678 0.186271 0.405348 0.345589 0.846322 255 255 255 255 
-0.169124 -0.124189 0.0601551 -0.739737 -0.671837 0.0377384 255 255 255 255 
-0.310967 -0.0698702 0.151666 -0.544559 -0.838431 0.0221021 255 255 255 255 
-0.0847337 -0.319617 0.15254 -0.0236912 -0.997794 0.0620215 255 255 255 255 
0.0844969 -0.0699725 -0.161057 0.530081 -0.137701 -0.836692 255 255 255 255 
0.0828197 -0.228878 0.104872 0.132875 -0.990716 0.0287417 255 255 255 255 
-0.0341271 -0.321401 0.157506 0.0805032 -0.983669 0.160978 255 255 255 255 
-0.311846 -0.0622845 0.0721537 -0.875978 -0.481551 0.0277652 255 255 255 255 
-0.147098 -0.227878 0.137361 -0.896671 -0.047862 0.440103 255 255 255 255 
0.114804 -0.22475 0.114583 0.121346 -0.992386 0.0210796 255 255 255 255 
0.0141995 -0.000675102 -0.159913 0.00687412 0.98685 -0.161492 255 255 255 255 
-0.247562 0.0207721 -0.00273809 -0.0599648 0.976412 -0.207424 255 255 255 255 
-0.0350696 -0.142892 -0.153039 0.0487344 -0.189234 -0.980722 255 255 255 255 
0.125984 -0.134189 0.0551749 0.677448 -0.130024 -0.723988 255 255 255 255 
-0.182418 -0.113403 0.025171 -0.69987 -0.712023 0.0566153 255 255 255 255 
-0.213384 0.00905865 -0.0965074 -0.000542326 0.990465 -0.137765 255 255 255 255 
-0.083332 -0.240421 -0.138302 -0.155848 -0.260385 -0.952844 255 255 255 255 
0.259779 0.0895596 0.156957 0.535131 0.304271 0.78807 255 255 255 255 
0.275112 0.244258 0.118906 0.112643 -0.170914 -0.978826 255 255 255 255 
0.317557 -0.0100959 0.09333 0.889213 0.252383 -0.38158 255 255 255 255 
0.00290937 -0.273557 0.122512 0.961738 -0.26667 0.0628302 255 255 255 255 
0.206768 0.331708 0.123741 -0.228564 0.971542 -0.062172 255 255 255 255 
0.149802 -0.207331 0.168799 0.0328008 -0.745895 0.665255 255 255 255 255 
0.270529 0.314576 0.105565 0.12526 -0.183941 -0.974923 255 255 255 255 
-0.0954136 -0.165688 -0.151594 -0.12156 -0.12369 -0.984847 255 255 255 255 
0.266396 -0.201537 0.169557 0.178 -0.598248 0.781291 255 255 255 255 
-0.0848613 -0.172776 0.165978 -0.00355935 -0.680159 0.733056 255 255 255 255 
0.0995052 -0.126075 -0.0376351 0.441087 -0.897002 -0.0287963 255 255 255 255 
-0.141873 -0.226102 0.0245443 -0.999362 -0.0354941 0.00395175 255 255 255 255 
-0.270935 -0.0800756 -0.0130446 -0.179662 -0.978826 0.0980848 255 255 255 255 
-0.183884 0.0109814 -0.0811617 -0.000224907 0.991882 -0.127158 255 255 255 255 
0.285025 0.0540857 0.139172 -0.0197088 0.948772 -0.315345 255 255 255 255 
-0.128669 -0.0842779 -0.161274 -0.170258 0.0246106 -0.985092 255 255 255 255 
0.0613128 0.0430375 0.0440526 0.0592273 0.651005 -0.756759 255 255 255 255 
0.0787712 -0.00356844 0.182661 -0.221715 0.0895096 0.970995 255 255 255 255 
0.0306976 0.101609 0.176523 -0.20877 0.506199 0.836766 255 255 255 255 
0.00321558 0.221715 0.149664 -0.67828 0.734654 0.0148166 255 255 255 255 
-0.102079 -0.291879 -0.133408 -0.382147 -0.395507 -0.835187 255 255 255 255 
-0.286898 0.027082 0.116281 -0.129174 0.99121 -0.0285651 255 255 255 255 
-0.298133 0.0183184 -0.0079292 -0.0931508 0.988605 -0.118251 255 255 255 255 
0.129904 -0.212271 0.071691 0.639206 -0.177114 -0.748362 255 255 255 255 
0.0478927 -0.0178581 -0.162602 0.479518 0.445414 -0.756087 255 255 255 255 
0.179146 0.258856 0.182364 0.152889 0.650544 0.74392 255 255 255 255 
-0.0426732 -0.0133025 -0.170838 6.16499e-005 0.204695 -0.978826 255 255 255 255 
0.31236 -0.0395197 0.159465 0.662786 0.124165 0.738443 255 255 255 255 
0.00415567 -0.263935 -0.036242 0.987751 -0.155579 0.0119608 255 255 255 255 
0.0842737 -0.0298772 -0.137462 0.115964 0.766863 -0.631248 255 255 255 255 
-0.00505012 -0.227419 0.172879 0.489311 -0.374255 0.787723 255 255 255 255 
-0.314152 -0.0534278 0.094703 -0.889204 -0.457008 0.0214511 255 255 255 255 
-0.092842 -0.259619 0.172395 -0.0330878 -0.569453 0.821358 255 255 255 255 
0.0415307 -0.00569579 -0.114264 0.959916 0.158337 -0.231279 255 255 255 255 
-0.282858 -0.00783254 0.184464 -0.0988276 0.486465 0.868093 255 255 255 255 
0.213258 -0.101287 0.034401 0.449893 -0.223106 -0.864766 255 255 255 255 
0.0148991 0.1977 0.169902 -0.352104 0.591017 0.725756 255 255 255 255 
-0.151517 -0.155075 0.0440395 -0.94559 -0.323702 0.0327995 255 255 255 255 
-0.0018298 -0.321108 -0.0607923 0.97969 -0.200515 -0.000494842 255 255 255 255 
0.0757466 -0.231719 0.0613557 0.147303 -0.987402 0.0577851 255 255 255 255 
0.133842 -0.222697 0.110931 0.111425 -0.993599 0.0185713 255 255 255 255 
-0.234982 0.00880764 -0.0980556 -0.00141327 0.990418 -0.138098 255 255 255 255 
0.105678 -0.122508 -0.0570848 0.417643 -0.908592 0.00584269 255 255 255 255 
0.141742 -0.119819 0.0213187 0.394378 -0.879153 -0.267498 255 255 255 255 
-0.187498 -0.102629 0.119276 -0.661486 -0.749592 0.0233988 255 255 255 255 
0.0557386 -0.0351377 -0.163625 0.396904 0.452297 -0.798683 255 255 255 255 
-0.264953 0.0286509 0.085019 -0.15868 0.986312 -0.0448295 255 255 255 255 
0.170926 -0.116486 0.079806 0.212675 -0.967435 -0.137254 255 255 255 255 
-0.136042 -0.00280941 -0.161824 -0.0154402 0.51372 -0.857819 255 255 255 255 
-0.0649119 0.143322 0.0956594 -0.735486 0.672053 -0.086057 255 255 255 255 
0.103303 -0.139278 0.0329713 0.767791 -0.110126 -0.631165 255 255 255 255 
-0.0632123 -0.0600407 0.18596 -0.21468 -0.482791 0.849014 255 255 255 255 
-0.148027 0.006338 -0.116004 -0.000139135 0.98985 -0.142118 255 255 255 255 
-0.0476508 -0.334519 -0.0509702 0.0453938 -0.990005 0.133529 255 255 255 255 
0.0421928 -0.232873 0.133464 0.163595 -0.986423 0.0143959 255 255 255 255 
0.119992 0.11858 0.176847 -0.0618672 0.506988 0.85973 255 255 255 255 
0.289539 0.163572 0.153271 0.558373 0.412942 0.719513 255 255 255 255 
0.0990719 0.277059 0.104752 -0.123862 0.422848 -0.897696 255 255 255 255 
0.224769 0.0560727 0.142319 0.229155 -0.0680357 -0.971009 255 255 255 255 
0.300078 0.0287443 0.115157 0.150878 0.279727 -0.94815 255 255 255 255 
0.095525 -0.106003 0.17566 -0.174666 -0.388771 0.904626 255 255 255 255 
0.130867 0.0613201 0.202172 0.0215353 0.472968 0.880816 255 255 255 255 
-0.312877 -0.0646264 0.0375284 -0.877148 -0.479374 0.0284881 255 255 255 255 
0.279198 0.199922 0.155534 0.553465 0.442097 0.705852 255 255 255 255 
0.165615 -0.00885722 0.0186453 0.346024 0.748859 -0.565224 255 255 255 255 
0.283139 0.108151 0.163908 0.577386 0.338464 0.743012 255 255 255 255 
-0.0167974 -0.12752 -0.155958 0.0849305 -0.229635 -0.969564 255 255 255 255 
-0.0920721 0.11645 0.119985 -0.688566 0.723585 -0.0479789 255 255 255 255 
0.032437 -0.101624 -0.163543 0.267557 -0.216242 -0.938964 255 255 255 255 
0.28576 0.193555 0.129237 0.137514 -0.171019 -0.975624 255 255 255 255 
0.170671 0.0997571 0.113529 0.43672 -0.145614 -0.887734 255 255 255 255 
0.0912031 -0.128255 -0.0163533 0.444463 -0.893992 -0.0568437 255 255 255 255 
-0.16227 -0.129766 0.117918 -0.79822 -0.60208 0.0185261 255 255 255 255 
-0.109423 -0.230959 0.17302 0.115274 -0.586915 0.801401 255 255 255 255 
-0.127753 -0.258753 0.182844 -0.454914 -0.419243 0.785677 255 255 255 255 
-0.173998 0.00322552 -0.13813 -3.83434e-005 0.985417 -0.170154 255 255 255 255 
-0.0966918 0.0702436 0.17542 -0.476491 0.405883 0.779882 255 255 255 255 
0.0321951 0.0323658 0.0301751 0.00237769 0.846952 -0.531664 255 255 255 255 
-0.160612 -0.140178 0.00279639 -0.857747 -0.511032 0.055814 255 255 255 255 
-0.227152 -0.00122395 -0.163033 -4.81258e-005 0.985888 -0.167409 255 255 255 255 
-0.18262 -0.115574 -0.0165726 -0.715044 -0.695837 0.0672472 255 255 255 255 
-0.0705056 -0.324814 0.0498798 -0.0153933 -0.99715 0.073855 255 255 255 255 
0.0602213 0.266961 0.118509 -0.512806 0.857281 -0.0458226 255 255 255 255 
0.313362 0.241958 0.122458 0.0832396 -0.172267 -0.981527 255 255 255 255 
-0.139214 -0.00523918 0.192776 -0.285682 -0.411379 0.865536 255 255 255 255 
-0.154236 -0.143742 0.10374 -0.905294 -0.424498 0.0156235 255 255 255 255 
0.0394537 0.231553 0.168636 -0.3693 0.606235 0.704341 255 255 255 255 
-0.142295 -0.298881 -0.0146478 -0.987712 -0.155094 0.0192577 255 255 255 255 
-0.0538433 -0.288002 -0.132473 -0.104139 -0.395444 -0.912567 255 255 255 255 
-0.143504 -0.261793 -0.041966 -0.999043 -0.0432713 0.00642018 255 255 255 255 
-0.293493 0.0272422 0.156174 -0.133943 0.990986 -0.00257059 255 255 255 255 
-0.14619 -0.172684 0.0270152 -0.96688 -0.253558 0.0291701 255 255 255 255 
-0.160188 -0.154262 -0.100109 -0.8082 -0.582279 0.0881091 255 255 255 255 
-0.320395 -0.0447877 0.0294851 -0.931112 -0.364189 0.0199521 255 255 255 255 
-0.0387347 -0.0844301 0.178152 -0.200992 -0.490506 0.847942 255 255 255 255 
-0.0387723 -0.272772 -0.133647 0.0792136 -0.429848 -0.89942 255 255 255 255 
-0.0775968 -0.337726 -0.0731083 0.00516898 -0.988866 0.148722 255 255 255 255 
0.244219 -0.211633 0.168149 0.0881388 -0.661134 0.745073 255 255 255 255 
-0.154762 -0.142536 0.149832 -0.889251 -0.457242 0.012723 255 255 255 255 
-0.159411 -0.136524 0.0428219 -0.85702 -0.51359 0.0417382 255 255 255 255 
-0.0408605 -0.32238 0.139861 0.0958328 -0.992295 0.0785319 255 255 255 255 
-0.00771394 -0.0119921 -0.169974 0.00382103 0.185977 -0.982547 255 255 255 255 
-0.165252 -0.130183 0.0252298 -0.808167 -0.586588 0.0527255 255 255 255 255 
0.321785 -0.0264075 0.10974 0.93258 0.228689 -0.279279 255 255 255 255 
0.257001 0.323938 0.102351 0.124364 -0.168994 -0.977739 255 255 255 255 
-0.287618 -0.0811472 -0.0257482 -0.233355 -0.966511 0.106777 255 255 255 255 
-0.300194 0.020782 0.0109797 -0.0839344 0.991715 -0.0972416 255 255 255 255 
-0.300727 -0.015721 0.187353 -0.0995057 0.492321 0.864707 255 255 255 255 
-0.0243818 -0.333895 -0.0550415 0.0582919 -0.988916 0.136558 255 255 255 255 
-0.0782486 -0.0715214 0.1813 -0.21112 -0.508059 0.835048 255 255 255 255 
-0.12776 0.00629041 -0.115762 -0.000164907 0.989845 -0.142151 255 255 255 255 
0.0253738 -0.235396 0.116706 0.223164 -0.974416 0.0266843 255 255 255 255 
0.296215 0.1458 0.161348 0.587727 0.385071 0.711546 255 255 255 255 
0.292953 0.0422998 0.124302 0.132701 0.292677 -0.946959 255 255 255 255 
0.150717 0.0536219 0.200663 0.299867 0.388581 0.871254 255 255 255 255 
0.160435 0.00642844 0.0371662 0.386666 0.6278 -0.675542 255 255 255 255 
0.287686 0.0920186 0.157581 0.577868 0.31253 0.753919 255 255 255 255 
-0.156043 -0.150447 -0.0133276 -0.886956 -0.458783 0.053173 255 255 255 255 
-0.174091 -0.126388 -0.037074 -0.804585 -0.589671 0.0702176 255 255 255 255 
-0.16253 -0.129487 0.0951457 -0.805109 -0.592585 0.025364 255 255 255 255 
-0.306882 0.0256899 0.146255 -0.122081 0.992424 -0.0138208 255 255 255 255 
-0.314709 -0.0618125 0.0161108 -0.908579 -0.417025 0.0239623 255 255 255 255 
-0.179422 -0.142412 0.171759 -0.378339 -0.508284 0.773632 255 255 255 255 
-0.00931546 -0.0367848 -0.171681 0.0265654 -0.0368814 -0.998966 255 255 255 255 
0.233704 0.315838 0.107359 -0.0626475 0.483458 -0.873123 255 255 255 255 
-0.295942 -0.0336695 0.181368 -0.102334 -0.452909 0.885664 255 255 255 255 
-0.0156844 -0.331157 -0.040035 0.0804292 -0.988592 0.127343 255 255 255 255 
0.0362218 -0.234389 0.0993242 0.197016 -0.979514 0.0416715 255 255 255 255 
0.305752 0.161094 0.147562 0.57423 0.404286 0.711908 255 255 255 255 
-0.31408 0.0181255 0.167051 -0.375889 0.450639 0.809711 255 255 255 255 
-0.322384 -0.0409076 0.00896481 -0.940388 -0.339612 0.0182615 255 255 255 255 
-0.157936 -0.150287 0.173283 -0.233782 -0.582998 0.778113 255 255 255 255 
0.045882 -0.120831 -0.157494 0.347754 -0.291376 -0.891161 255 255 255 255 
-0.0490644 0.00121455 -0.149999 -4.03138e-005 0.982039 -0.18868 255 255 255 255 
-0.116221 -0.324953 0.0248941 -0.134519 -0.987354 0.0838846 255 255 255 255 
-0.324903 -0.0673468 -0.113924 -0.985791 0.164003 -0.036324 255 255 255 255 
-0.306233 -0.0789293 -0.0180307 -0.345559 -0.933182 0.098799 255 255 255 255 
-0.198954 -0.0415625 -0.16465 -0.368568 0.0315662 -0.929065 255 255 255 255 
-0.322027 -0.000812467 -0.0238587 -0.871847 0.486467 -0.0568537 255 255 255 255 
0.269279 -0.107074 0.182945 0.598371 0.00313995 0.801213 255 255 255 255 
0.28213 -0.0548182 0.0491337 0.165505 -0.171707 -0.971146 255 255 255 255 
0.269333 0.114956 0.141004 0.171107 -0.168885 -0.97067 255 255 255 255 
0.13844 -0.124615 -0.0221111 0.480013 -0.848556 -0.222578 255 255 255 255 
-0.290229 -0.0794768 -0.00515707 -0.215466 -0.971907 0.0947137 255 255 255 255 
0.0351742 -0.247583 -0.0613085 0.429065 -0.900637 0.0689664 255 255 255 255 
0.18227 0.0487988 0.109295 0.149306 0.814199 -0.561059 255 255 255 255 
-0.256086 0.0164075 0.172586 -0.111651 0.395009 0.911867 255 255 255 255 
-0.318827 -0.0143265 0.178596 -0.680297 -0.120449 0.722972 255 255 255 255 
-0.0993925 0.0479936 0.176875 -0.472823 0.369312 0.800029 255 255 255 255 
0.315774 -0.0784035 0.158158 0.953415 -0.0848638 0.289479 255 255 255 255 
0.123047 -0.18146 0.184372 0.00769317 -0.682934 0.730439 255 255 255 255 
-0.250717 -0.0194831 0.185559 -0.118464 0.325554 0.938073 255 255 255 255 
0.264101 0.133467 0.136698 0.171564 -0.170644 -0.970282 255 255 255 255 
-0.167369 0.00628259 -0.117258 -0.000250904 0.988828 -0.149064 255 255 255 255 
-0.155443 -0.035022 0.180634 -0.270559 -0.461398 0.844932 255 255 255 255 
0.0518508 -0.221882 0.154587 0.042958 -0.714305 0.698515 255 255 255 255 
-0.138781 -0.140341 0.169985 -0.107714 -0.659428 0.744011 255 255 255 255 
0.271419 0.337518 0.108153 -0.0847445 0.933398 -0.348692 255 255 255 255 
0.284503 0.128599 0.141034 0.165578 -0.170432 -0.971358 255 255 255 255 
-0.324055 -0.0795834 -0.089021 -0.643321 -0.758871 0.101257 255 255 255 255 
0.114698 -0.126196 -0.0192019 0.457688 -0.881999 -0.112244 255 255 255 255 
0.168631 0.0447339 0.0903772 0.163631 0.828312 -0.53584 255 255 255 255 
-0.120535 0.0448519 0.175441 -0.477381 0.354449 0.804036 255 255 255 255 
-0.235743 -0.0355571 0.183418 -0.198494 -0.534709 0.821393 255 255 255 255 
-0.323579 -0.0545797 -0.095417 -0.985329 0.166684 -0.0366631 255 255 255 255 
0.128572 -0.123695 0.000888356 0.445628 -0.868979 -0.215153 255 255 255 255 
0.143713 0.0448153 0.0852765 0.249141 0.807686 -0.53439 255 255 255 255 
-0.322929 -0.0412078 -0.075201 -0.982237 0.183797 -0.0377932 255 255 255 255 
0.146979 0.0645819 0.106585 0.454255 -0.112864 -0.883693 255 255 255 255 
-0.326328 -0.0617061 -0.0703902 -0.983803 0.175356 -0.0371738 255 255 255 255 
-0.0525874 -0.139921 0.177859 -0.0705793 -0.673955 0.735393 255 255 255 255 
0.101764 -0.0870618 -0.142342 0.986975 -0.0306042 -0.157937 255 255 255 255 
-0.102292 -0.211186 -0.141718 -0.265345 -0.207065 -0.941656 255 255 255 255 
-0.0195136 -0.148178 -0.151707 0.092769 -0.241199 -0.966031 255 255 255 255 
-0.098345 0.109454 0.15775 -0.665754 0.743758 -0.0599619 255 255 255 255 
-0.217947 -0.100544 -0.0889563 -0.38189 -0.914474 0.133784 255 255 255 255 
-0.00745637 -0.0680284 0.193051 -0.204017 -0.47977 0.853345 255 255 255 255 
-0.308362 -0.0742005 -0.156289 -0.518466 -0.363158 -0.774151 255 255 255 255 
0.0985028 -0.0441026 0.187673 -0.070155 0.0580678 0.995845 255 255 255 255 
-0.0154782 0.0941784 0.175792 -0.309762 0.492937 0.813056 255 255 255 255 
0.0794219 -0.227863 0.16306 0.130781 -0.991308 0.0143042 255 255 255 255 
-0.136301 0.0280315 0.0226321 0.00551125 0.85208 -0.523382 255 255 255 255 
-0.0760776 -0.130742 0.177791 -0.0895674 -0.667753 0.738974 255 255 255 255 
-0.0153788 0.203649 0.136611 -0.712325 0.701446 -0.0238086 255 255 255 255 
-0.0988543 0.110327 0.172241 -0.652662 0.744919 -0.138303 255 255 255 255 
-0.0617085 -0.199871 -0.143974 -0.0340047 -0.215322 -0.975951 255 255 255 255 
