ply
format ascii 1.0
comment VCGLIB generated
element vertex 633
property float x
property float y
property float z
property float nx
property float ny
property float nz
property uchar red
property uchar green
property uchar blue
property uchar alpha
element face 0
property list uchar int vertex_indices
end_header
0.0707153 0.164141 -0.202493 0.060617 0.0919916 -0.993913 255 255 255 255 
0.0898319 0.00833861 0.150467 0.555058 0.347395 0.755796 255 255 255 255 
-0.300857 -0.100984 -0.0366742 -0.713085 0.583264 0.38899 255 255 255 255 
0.176118 0.113652 -0.0841535 0.609201 0.376397 0.697996 255 255 255 255 
0.282308 -0.185416 -0.198764 0.226318 -0.21047 -0.951043 255 255 255 255 
0.158863 -0.265368 -0.035389 0.0498363 -0.892451 0.448383 255 255 255 255 
0.197143 0.108995 -0.10539 0.8176 0.575348 0.0224818 255 255 255 255 
0.14007 0.11862 -0.0600829 -0.245295 -0.534264 0.808946 255 255 255 255 
-0.197018 -0.127525 0.0105538 0.778395 0.575506 -0.250785 255 255 255 255 
0.0194773 0.00437623 0.188926 0.075441 0.301254 0.950555 255 255 255 255 
-0.196967 -0.24631 -0.193209 -0.0885778 -0.511142 -0.85492 255 255 255 255 
0.337681 -0.116264 -0.0793101 0.83605 0.340162 0.430476 255 255 255 255 
0.278444 -0.148887 -0.201292 0.194764 -0.0526974 -0.979433 255 255 255 255 
-0.209206 -0.121581 -0.0164162 0.820431 0.55672 0.130214 255 255 255 255 
0.333936 -0.120299 -0.069544 0.815154 0.327801 0.477568 255 255 255 255 
0.26424 -0.11741 -0.199494 0.203232 0.061316 -0.977209 255 255 255 255 
-0.221784 -0.102698 -0.0270642 0.751498 0.536162 0.384424 255 255 255 255 
-0.0346561 0.0211373 0.176682 -0.173756 0.420766 0.890373 255 255 255 255 
-0.227465 -0.0958511 0.0132322 0.594706 0.629021 -0.500657 255 255 255 255 
-0.191173 -0.249947 -0.191332 -0.0810935 -0.517578 -0.851784 255 255 255 255 
0.32536 -0.0884397 -0.0990901 0.83841 0.477715 0.262407 255 255 255 255 
0.280365 -0.134007 -0.199968 0.223961 0.0144091 -0.974492 255 255 255 255 
-0.238458 -0.0877111 0.0125833 0.567243 0.631694 -0.528392 255 255 255 255 
0.334006 -0.10106 -0.0961612 0.853412 0.44117 0.277592 255 255 255 255 
0.311317 -0.161831 -0.196678 0.366371 -0.135125 -0.920605 255 255 255 255 
0.328638 -0.101706 -0.082584 0.811926 0.439411 0.384309 255 255 255 255 
0.311634 -0.14775 -0.196302 0.390958 -0.0328915 -0.919821 255 255 255 255 
0.321169 -0.151417 -0.192777 0.427456 -0.0827459 -0.900242 255 255 255 255 
0.282125 -0.104568 -0.194662 0.3109 0.12878 -0.941678 255 255 255 255 
0.320514 -0.111566 -0.177959 0.593081 0.25462 -0.763822 255 255 255 255 
0.286791 -0.13177 -0.199362 0.263338 0.0298977 -0.96424 255 255 255 255 
0.308125 -0.156069 -0.198024 0.354013 -0.101107 -0.929759 255 255 255 255 
0.340322 -0.137259 -0.167792 0.931131 0.238844 -0.275588 255 255 255 255 
-0.21735 -0.253464 -0.185993 -0.127037 -0.573091 -0.809585 255 255 255 255 
-0.219732 -0.111912 -0.00819435 0.785538 0.570347 0.240069 255 255 255 255 
-0.163101 -0.236637 -0.197455 -0.0285985 -0.289388 -0.956784 255 255 255 255 
0.323819 -0.14357 -0.190762 0.459052 -0.01947 -0.888196 255 255 255 255 
-0.183242 -0.183797 -0.203315 0.0254536 -0.00269625 -0.999672 255 255 255 255 
0.303611 -0.117432 -0.192126 0.434769 0.153938 -0.887287 255 255 255 255 
0.332312 -0.112227 -0.163834 0.882137 0.339741 -0.326206 255 255 255 255 
-0.225526 -0.213061 -0.204937 -0.13069 -0.259112 -0.956965 255 255 255 255 
0.323817 -0.126999 -0.185674 0.526548 0.131033 -0.839987 255 255 255 255 
0.33635 -0.121192 -0.164013 0.905415 0.3006 -0.299771 255 255 255 255 
0.318883 -0.100665 -0.172309 0.67761 0.316035 -0.664053 255 255 255 255 
0.341702 -0.123178 -0.149782 0.927982 0.300898 -0.219793 255 255 255 255 
0.33489 -0.110214 -0.156007 0.885891 0.349234 -0.30534 255 255 255 255 
0.33569 -0.0991708 -0.13 0.90691 0.420413 -0.0277072 255 255 255 255 
0.345423 -0.119953 -0.126395 0.94156 0.328088 -0.0763037 255 255 255 255 
0.349189 -0.130389 -0.122253 0.962197 0.267231 -0.0525829 255 255 255 255 
0.351855 -0.145081 -0.126098 0.976281 0.200843 -0.0808567 255 255 255 255 
0.348631 -0.14658 -0.0869374 0.922225 0.0370587 0.384873 255 255 255 255 
0.342422 -0.129071 -0.0764958 0.865829 0.221936 0.448425 255 255 255 255 
0.340617 -0.110177 -0.0958453 0.881095 0.392011 0.264574 255 255 255 255 
0.345863 -0.120668 -0.0937068 0.911106 0.323711 0.255143 255 255 255 255 
0.345383 -0.116678 -0.118638 0.941019 0.33832 -0.00480429 255 255 255 255 
0.350027 -0.138851 -0.131287 0.967449 0.231637 -0.101916 255 255 255 255 
0.340866 -0.108596 -0.129403 0.925357 0.372817 -0.0687083 255 255 255 255 
0.338959 -0.115543 -0.151222 0.917241 0.332825 -0.218854 255 255 255 255 
0.339876 -0.122754 -0.156645 0.920853 0.303319 -0.245005 255 255 255 255 
0.347769 -0.132719 -0.136309 0.954748 0.2674 -0.130207 255 255 255 255 
0.343539 -0.135504 -0.157199 0.941499 0.255976 -0.219219 255 255 255 255 
0.347094 -0.144995 -0.152378 0.955751 0.219306 -0.196073 255 255 255 255 
-0.232891 -0.263906 -0.174841 -0.160557 -0.623341 -0.765289 255 255 255 255 
0.315825 -0.117167 -0.185819 0.535421 0.196449 -0.821421 255 255 255 255 
-0.254769 -0.221972 -0.196411 -0.211465 -0.322474 -0.922655 255 255 255 255 
-0.186802 -0.177056 -0.203071 0.0285855 0.014606 -0.999485 255 255 255 255 
0.32594 -0.101651 -0.165317 0.793995 0.349094 -0.4977 255 255 255 255 
0.335187 -0.0966802 -0.119517 0.901521 0.429436 0.0533236 255 255 255 255 
0.35156 -0.13502 -0.104101 0.970346 0.223722 0.091529 255 255 255 255 
0.349668 -0.128029 -0.106903 0.959407 0.277001 0.0529923 255 255 255 255 
0.33658 -0.107665 -0.0882489 0.855262 0.400765 0.328504 255 255 255 255 
0.348112 -0.122174 -0.103427 0.946418 0.30002 0.119502 255 255 255 255 
0.336905 -0.100478 -0.10576 0.889785 0.422261 0.173142 255 255 255 255 
0.352577 -0.139614 -0.114669 0.975753 0.21821 0.017033 255 255 255 255 
0.341732 -0.150719 -0.17555 0.944969 0.200169 -0.258777 255 255 255 255 
-0.232754 -0.18918 -0.205872 -0.137065 -0.0983686 -0.985666 255 255 255 255 
-0.205138 -0.198934 -0.207138 -0.0525147 -0.129162 -0.990232 255 255 255 255 
-0.227006 -0.193184 -0.20655 -0.118988 -0.113886 -0.986343 255 255 255 255 
0.343445 -0.141571 -0.074687 0.887461 0.0653084 0.456233 255 255 255 255 
0.349315 -0.130929 -0.0916118 0.943789 0.218184 0.248309 255 255 255 255 
0.344774 -0.113378 -0.109532 0.932776 0.349473 0.088302 255 255 255 255 
0.328769 -0.106864 -0.0742744 0.811883 0.406262 0.419281 255 255 255 255 
-0.21821 -0.189139 -0.207325 -0.0869613 -0.0906364 -0.99208 255 255 255 255 
-0.232537 -0.205944 -0.205098 -0.146589 -0.207843 -0.967116 255 255 255 255 
0.338895 -0.127464 -0.0703723 0.85678 0.228413 0.462337 255 255 255 255 
0.342312 -0.120078 -0.0834925 0.876742 0.313442 0.364797 255 255 255 255 
-0.202736 -0.175005 -0.205402 -0.0164976 -0.00782316 -0.999833 255 255 255 255 
-0.194508 -0.210875 -0.205868 -0.043455 -0.198798 -0.979077 255 255 255 255 
0.336343 -0.14844 -0.0635701 0.84875 0.000881541 0.528794 255 255 255 255 
-0.250998 -0.216071 -0.199032 -0.199149 -0.277822 -0.939763 255 255 255 255 
-0.194259 -0.190599 -0.205861 -0.013349 -0.060247 -0.998094 255 255 255 255 
-0.240522 -0.195073 -0.204533 -0.161785 -0.13987 -0.976863 255 255 255 255 
-0.165514 -0.164456 -0.198608 0.0832696 0.0788893 -0.9934 255 255 255 255 
-0.037967 0.0410024 0.121271 -0.0539227 -0.394101 -0.917484 255 255 255 255 
0.0801495 -0.212122 -0.20173 -0.0202044 -0.117261 -0.992895 255 255 255 255 
-0.152875 -0.225101 -0.199755 -0.0123012 -0.192787 -0.981164 255 255 255 255 
-0.0698 -0.217398 -0.201794 0.00833313 -0.0814545 -0.996642 255 255 255 255 
-0.0143971 -0.0157507 0.19596 -0.0937926 0.276481 0.956432 255 255 255 255 
-0.219445 0.0533204 -0.10557 -0.821906 0.569318 -0.0186395 255 255 255 255 
-0.109797 0.177819 -0.0520983 -0.752364 0.526393 0.396055 255 255 255 255 
-0.125474 -0.175051 -0.099837 0.567705 0.546973 0.615249 255 255 255 255 
-0.151386 -0.0457196 0.136757 -0.565015 0.0395852 0.824131 255 255 255 255 
-0.144387 -0.287337 -0.163457 -0.0633521 -0.93644 -0.34506 255 255 255 255 
-0.221872 -0.105591 -0.0205033 0.763911 0.552773 0.33299 255 255 255 255 
0.131106 -0.159747 0.112186 0.412667 -0.521585 0.746763 255 255 255 255 
-0.173568 -0.292379 -0.116199 -0.0990766 -0.993183 0.0614074 255 255 255 255 
0.301356 -0.265938 -0.130442 0.446646 -0.886361 -0.12195 255 255 255 255 
0.102094 0.110674 -0.200628 0.0652474 0.0408422 -0.997033 255 255 255 255 
-0.269989 -0.112928 -0.194019 -0.346325 0.16307 -0.923833 255 255 255 255 
0.0800299 -0.246453 -0.194706 0.00772043 -0.328624 -0.944429 255 255 255 255 
-0.0889833 0.234668 -0.0922493 -0.739995 0.637943 0.213155 255 255 255 255 
0.104854 -0.249084 -0.0377478 -0.671437 0.577376 0.464553 255 255 255 255 
-0.264983 -0.147383 -0.198819 -0.254559 0.0506439 -0.96573 255 255 255 255 
-0.249393 -0.0595951 -0.0383335 0.419456 0.432385 0.798185 255 255 255 255 
0.267758 0.0096423 -0.139194 0.830028 0.541783 -0.132381 255 255 255 255 
0.303347 -0.0504168 -0.114609 0.837523 0.515012 0.182535 255 255 255 255 
0.343033 -0.111122 -0.103379 0.921554 0.365371 0.131307 255 255 255 255 
0.0756336 0.152519 0.00740458 0.930771 0.0457358 0.362729 255 255 255 255 
0.322098 -0.222829 -0.174518 0.520257 -0.413865 -0.747027 255 255 255 255 
-0.115119 -0.173129 0.115351 -0.378051 -0.550226 0.744533 255 255 255 255 
0.145855 -0.13719 -0.115777 -0.711292 0.531121 0.460406 255 255 255 255 
0.16474 -0.0400106 -0.115111 -0.73658 -0.135597 0.662619 255 255 255 255 
-0.30061 -0.0861639 -0.164249 -0.712629 0.413103 -0.567015 255 255 255 255 
-0.286048 -0.153122 0.00197287 -0.734649 -0.140648 0.663708 255 255 255 255 
-0.250208 -0.0500136 -0.0402042 -0.618503 0.590614 0.518295 255 255 255 255 
0.227112 -0.233725 -0.00842764 0.354315 -0.72363 0.592301 255 255 255 255 
0.0820947 -0.296866 -0.112191 0.0353061 -0.998375 0.0447405 255 255 255 255 
0.250026 -0.0108666 -0.0701203 0.605497 0.484122 0.631664 255 255 255 255 
0.107505 -0.129778 0.092408 -0.508792 0.301513 -0.806362 255 255 255 255 
-0.0328912 0.119438 0.0976591 -0.155455 0.672821 0.723289 255 255 255 255 
-0.278667 -0.0616029 -0.0587891 -0.694385 0.576825 0.430236 255 255 255 255 
0.301995 -0.165039 -0.0262521 0.741675 -0.165223 0.650092 255 255 255 255 
0.112 -0.296651 -0.123478 0.0506979 -0.998425 -0.0240084 255 255 255 255 
0.0868549 0.0470445 -0.14113 -0.538657 -0.667614 0.513946 255 255 255 255 
0.0351453 -0.0140395 0.137789 -0.110504 -0.210951 -0.97123 255 255 255 255 
0.0275231 0.100281 0.115496 0.16652 0.659684 0.732863 255 255 255 255 
0.150668 -0.11242 0.126685 0.537604 -0.300706 0.787755 255 255 255 255 
0.0902975 0.21334 -0.184134 0.436051 0.465121 -0.770404 255 255 255 255 
0.0628651 0.118954 -0.199527 -0.0255032 -0.0512653 -0.998359 255 255 255 255 
-0.0643928 -0.260468 -0.188416 -0.00983906 -0.447026 -0.894467 255 255 255 255 
-0.0437932 0.190525 -0.197489 -0.165387 0.197862 -0.966177 255 255 255 255 
-0.344909 -0.138229 -0.125517 -0.937219 0.347311 -0.031559 255 255 255 255 
-0.0961707 -0.2824 -0.171821 -0.0247948 -0.730238 -0.682743 255 255 255 255 
0.0742468 0.0659795 0.108303 0.967447 0.246927 -0.0554325 255 255 255 255 
0.298668 -0.125351 -0.196364 0.36478 0.0888989 -0.92684 255 255 255 255 
0.0252619 0.245539 -0.0308082 0.2161 0.774117 0.595016 255 255 255 255 
-0.00746565 0.0891687 -0.143835 0.0762442 -0.872745 0.482185 255 255 255 255 
-0.129456 0.0468526 -0.201718 -0.0734612 0.0454974 -0.99626 255 255 255 255 
-0.344475 -0.234859 -0.136299 -0.737488 -0.675171 0.0159797 255 255 255 255 
-0.0401837 -0.269646 -0.0711368 0.0648395 -0.433504 0.898816 255 255 255 255 
0.0241212 0.0274202 0.122664 -0.0660368 -0.390488 -0.918237 255 255 255 255 
0.0377594 0.0400258 0.114469 -0.0464407 -0.443278 -0.89518 255 255 255 255 
-0.0721394 0.209043 -0.0190618 -0.584101 0.637731 0.502121 255 255 255 255 
0.161486 -0.258735 -0.0247985 0.0539266 -0.882418 0.467366 255 255 255 255 
0.0334545 -0.237685 -0.197539 0.00056081 -0.256168 -0.966632 255 255 255 255 
0.206817 -0.0854384 -0.0683911 -0.714219 0.374404 0.591365 255 255 255 255 
0.146673 0.178263 -0.12612 0.791745 0.603077 0.0971434 255 255 255 255 
-0.293062 -0.230248 -0.0407559 -0.559644 -0.59037 0.581602 255 255 255 255 
-0.161944 -0.189881 -0.0267724 0.883319 0.445942 0.144512 255 255 255 255 
0.0419758 -0.00273854 0.133415 -0.1019 -0.259141 -0.960449 255 255 255 255 
-0.213563 -0.141665 0.0699369 -0.586602 -0.326547 0.741124 255 255 255 255 
0.141881 -0.198902 -0.00668574 -0.82495 0.561542 -0.0642473 255 255 255 255 
-0.187936 -0.288741 -0.0971649 -0.120952 -0.975186 0.185425 255 255 255 255 
-0.27131 -0.0252973 -0.0904635 -0.775331 0.564861 0.28248 255 255 255 255 
-0.0613897 -0.170682 0.129958 0.336145 -0.941809 0.00114748 255 255 255 255 
0.319477 -0.235832 -0.0839814 0.646534 -0.630038 0.43017 255 255 255 255 
0.0928773 0.200282 -0.0350072 0.708878 0.482976 0.514029 255 255 255 255 
-0.339326 -0.1539 -0.161287 -0.788453 0.268681 -0.55331 255 255 255 255 
0.145881 -0.0795059 0.136287 0.600501 -0.0545276 0.797763 255 255 255 255 
-0.219493 -0.156643 0.0590363 -0.569882 -0.370926 0.733245 255 255 255 255 
0.0458659 -0.206726 -0.200738 -0.0121307 -0.0859956 -0.996222 255 255 255 255 
-0.049445 0.268814 -0.168645 -0.272893 0.474052 -0.83714 255 255 255 255 
0.274815 -0.231624 -0.185699 0.23696 -0.372522 -0.897261 255 255 255 255 
-0.237942 -0.1228 0.0444167 0.731671 0.586253 0.347801 255 255 255 255 
0.220155 0.0770686 -0.121403 0.821278 0.570466 -0.0084321 255 255 255 255 
0.190253 -0.191306 0.0540401 0.437485 -0.568066 0.697071 255 255 255 255 
-0.0550081 0.135284 0.0235865 -0.05691 -0.93364 -0.353663 255 255 255 255 
-0.108089 0.215137 -0.113666 -0.792073 0.605122 0.0802926 255 255 255 255 
-0.0610684 0.103847 -0.201468 0.035745 -0.0850326 -0.995737 255 255 255 255 
-0.235181 0.0210238 -0.0777374 -0.781639 0.572003 0.248702 255 255 255 255 
-0.336874 -0.232447 -0.0927549 -0.72862 -0.602356 0.326008 255 255 255 255 
-0.282525 -0.251172 -0.0585028 -0.429582 -0.77383 0.465453 255 255 255 255 
0.084216 0.0946932 -0.199509 -0.0214599 -0.039978 -0.99897 255 255 255 255 
-0.0549661 0.0379112 0.160176 -0.25829 0.516098 0.816658 255 255 255 255 
-0.0961281 0.0613068 -0.200236 0.0342752 -0.0534858 -0.99798 255 255 255 255 
-0.129271 -0.154725 -0.114894 0.613214 0.515856 0.598216 255 255 255 255 
0.274407 -0.0680415 -0.0499204 0.590322 0.57657 0.564878 255 255 255 255 
0.0418537 -0.144403 0.173942 0.245079 -0.396451 0.884739 255 255 255 255 
0.186994 -0.0485688 -0.0947857 -0.693512 0.00140141 0.720444 255 255 255 255 
0.221898 0.0204731 -0.186839 0.377195 0.246094 -0.892839 255 255 255 255 
-0.197717 -0.132652 -0.0393849 0.815666 0.498637 0.293344 255 255 255 255 
0.0707723 -0.0244872 0.132901 -0.181847 -0.0379336 -0.982595 255 255 255 255 
0.356747 -0.199048 -0.125686 0.99049 -0.13407 0.0308972 255 255 255 255 
0.0159252 0.110906 -0.105531 -0.0447315 -0.851703 0.522113 255 255 255 255 
-0.113935 0.125527 -0.0552018 0.164202 -0.622513 0.765189 255 255 255 255 
-0.216523 -0.265024 -0.0464578 -0.211128 -0.871712 0.442203 255 255 255 255 
0.132563 0.0855559 -0.0804096 -0.350315 -0.493261 0.796224 255 255 255 255 
0.138125 -0.0416841 0.127041 0.660319 0.731527 0.169846 255 255 255 255 
-0.281869 -0.0798742 -0.0413585 -0.666027 0.617055 0.419107 255 255 255 255 
0.0688246 0.0465455 -0.167385 -0.521687 -0.749529 0.407491 255 255 255 255 
0.208898 -0.272749 -0.0646059 0.209365 -0.897062 0.38916 255 255 255 255 
-0.0471871 0.0723695 -0.191629 0.154346 -0.241936 -0.957938 255 255 255 255 
0.335797 -0.203967 -0.0778387 0.822544 -0.303517 0.480936 255 255 255 255 
-0.327516 -0.11369 -0.146581 -0.839216 0.412262 -0.354621 255 255 255 255 
-0.252597 -0.247843 -0.184389 -0.20603 -0.509365 -0.835523 255 255 255 255 
0.35361 -0.219487 -0.134571 0.886597 -0.410133 0.213861 255 255 255 255 
0.292876 -0.0311023 -0.146426 0.84959 0.524142 -0.0589328 255 255 255 255 
0.0986398 -0.048699 0.121948 -0.292686 0.151791 -0.944084 255 255 255 255 
0.0375953 -0.116501 0.187648 0.169175 -0.301986 0.938181 255 255 255 255 
-0.156618 -0.0577402 0.104975 0.383085 0.46291 -0.79935 255 255 255 255 
-0.223735 -0.208998 0.0228718 -0.437038 -0.595915 0.673708 255 255 255 255 
0.0672554 0.14315 0.0367755 0.948308 0.052435 0.31299 255 255 255 255 
-0.300311 -0.214672 -0.0359495 -0.640314 -0.455884 0.618197 255 255 255 255 
0.071312 0.156883 0.0198978 0.942101 0.0388724 0.33307 255 255 255 255 
-0.0452762 0.191021 0.0238518 -0.301933 0.703531 0.643336 255 255 255 255 
0.0935703 -0.296657 -0.112653 0.0407073 -0.998011 0.048128 255 255 255 255 
-0.0800795 0.122448 -0.0693125 0.179306 -0.76558 0.617848 255 255 255 255 
-0.345405 -0.176457 -0.163586 -0.577106 0.0313344 -0.816068 255 255 255 255 
0.315155 -0.0917641 -0.0725367 0.769495 0.475306 0.42657 255 255 255 255 
-0.00790351 0.213506 -0.198079 -0.0643282 0.240958 -0.968401 255 255 255 255 
-0.0992415 -0.167083 0.0878155 0.584264 0.105418 -0.804688 255 255 255 255 
0.0742791 0.169377 0.00844911 0.928317 0.0458062 0.368957 255 255 255 255 
-0.133492 0.0404087 -0.10089 0.522863 -0.409787 0.747455 255 255 255 255 
-0.0169728 -0.100331 0.141145 -0.0104726 0.112541 -0.993592 255 255 255 255 
0.249418 -0.0286443 -0.0596742 0.555843 0.497632 0.665884 255 255 255 255 
-0.262217 -0.232441 -0.0228909 -0.450594 -0.657816 0.603526 255 255 255 255 
0.232878 -0.200485 0.0189618 0.482495 -0.548801 0.682653 255 255 255 255 
-0.0940914 0.22743 -0.0906242 -0.75269 0.620494 0.220104 255 255 255 255 
0.141329 0.0823241 -0.198953 0.154957 0.107655 -0.982038 255 255 255 255 
-0.0269648 -0.00487683 0.139538 -0.0281995 -0.2357 -0.971417 255 255 255 255 
-0.0772254 0.139085 -0.200833 -0.154737 0.11021 -0.981789 255 255 255 255 
0.257504 0.0247709 -0.136945 0.818678 0.542546 -0.188178 255 255 255 255 
0.291683 -0.0392375 -0.157574 0.69985 0.412853 -0.582891 255 255 255 255 
-0.153414 -0.186335 0.0318167 0.904331 0.390912 -0.171387 255 255 255 255 
-0.0834705 -0.183141 -0.117807 0.355604 0.652763 0.668915 255 255 255 255 
0.131944 -0.203393 -0.0503315 -0.720029 0.586956 0.370191 255 255 255 255 
0.054005 -0.208965 -0.0995357 -0.266699 0.702755 0.659551 255 255 255 255 
-0.029271 0.0768527 0.136177 -0.127328 0.627854 0.767846 255 255 255 255 
0.206305 0.0617352 -0.0805016 0.494955 0.343147 0.798292 255 255 255 255 
-0.331517 -0.162211 -0.172188 -0.611354 0.126858 -0.781123 255 255 255 255 
0.133919 -0.138191 -0.134035 -0.675443 0.576748 0.459499 255 255 255 255 
0.313838 -0.192748 -0.0458487 0.750306 -0.265027 0.605642 255 255 255 255 
0.202035 0.085599 -0.168539 0.748788 0.519007 -0.412248 255 255 255 255 
0.193786 0.0614837 -0.0732405 0.476713 0.325777 0.816464 255 255 255 255 
-0.155696 -0.181026 -0.0596993 0.757136 0.479864 0.443256 255 255 255 255 
0.310419 -0.135296 -0.0316716 0.774685 -0.00822426 0.632294 255 255 255 255 
-0.0545457 0.0815537 0.0926842 -0.127984 -0.619383 -0.774587 255 255 255 255 
0.173223 -0.0687044 0.1053 0.634719 0.749025 0.189982 255 255 255 255 
-0.17786 -0.0818577 0.0762631 0.440012 0.573272 -0.691194 255 255 255 255 
-0.326808 -0.135735 -0.165709 -0.771299 0.32407 -0.547793 255 255 255 255 
-0.30647 -0.132328 -0.0216167 -0.801855 0.0149648 0.597331 255 255 255 255 
-0.0202357 -0.21972 -0.100155 0.0721339 0.643138 0.762345 255 255 255 255 
-0.0413722 0.0262544 0.172104 -0.200189 0.453247 0.868615 255 255 255 255 
0.156068 -0.250102 -0.00977728 0.0439968 -0.872667 0.48633 255 255 255 255 
0.173236 -0.0630377 -0.201189 -0.288868 -0.00809861 -0.957335 255 255 255 255 
-0.0939269 -0.0816096 0.175959 -0.455263 -0.113009 0.883156 255 255 255 255 
0.239315 -0.138487 -0.201838 0.098479 0.00134785 -0.995138 255 255 255 255 
-0.0728715 -0.285993 -0.166413 -0.0214323 -0.9177 -0.396696 255 255 255 255 
-0.0542055 0.00808717 0.136135 -0.011556 -0.26545 -0.964055 255 255 255 255 
-0.0608184 0.204986 -0.00134513 -0.467782 0.675311 0.570207 255 255 255 255 
0.108735 -0.135734 0.0890266 -0.536745 0.317241 -0.781833 255 255 255 255 
-0.0460805 0.221428 -0.190012 -0.235681 0.31841 -0.918188 255 255 255 255 
-0.347313 -0.231074 -0.14503 -0.751597 -0.659616 0.00297542 255 255 255 255 
0.129546 0.0850944 -0.200108 0.111517 0.0758453 -0.990864 255 255 255 255 
0.237481 -0.285176 -0.137653 0.219465 -0.922001 -0.31898 255 255 255 255 
0.25921 -0.0225916 -0.0699405 0.609543 0.500411 0.614855 255 255 255 255 
-0.276919 -0.269887 -0.0966966 -0.357882 -0.899576 0.250368 255 255 255 255 
0.122032 -0.29568 -0.132357 0.0559934 -0.991611 -0.116504 255 255 255 255 
-0.0491783 -0.0502986 0.1974 -0.286622 0.0598914 0.95617 255 255 255 255 
0.140601 -0.294068 -0.0996912 0.0756583 -0.98771 0.136767 255 255 255 255 
-0.0682951 0.0437115 0.121481 -0.0622395 -0.424204 -0.903425 255 255 255 255 
-0.22153 0.0485028 -0.126743 -0.817047 0.564381 -0.117937 255 255 255 255 
0.237276 -0.17709 0.0309893 0.562104 -0.418242 0.713521 255 255 255 255 
-0.113209 -0.151121 -0.134098 0.554344 0.570851 0.605667 255 255 255 255 
0.0690504 0.222124 -0.188812 0.288827 0.398735 -0.870396 255 255 255 255 
-0.106439 -0.293021 -0.148317 -0.0424547 -0.975703 -0.214946 255 255 255 255 
0.302726 -0.249262 -0.0842771 0.525156 -0.74767 0.406448 255 255 255 255 
-0.0405261 0.242984 -0.184403 -0.23855 0.394855 -0.887233 255 255 255 255 
0.187601 -0.289721 -0.139099 0.121925 -0.957757 -0.260454 255 255 255 255 
-0.0514505 -0.298303 -0.116271 -0.0142165 -0.999888 -0.00478485 255 255 255 255 
0.178173 -0.226912 0.0244073 0.258466 -0.756919 0.600224 255 255 255 255 
0.00111721 -0.297493 -0.134664 0.0019984 -0.978458 -0.206438 255 255 255 255 
-0.0726911 -0.151785 -0.176984 0.189234 0.6267 -0.755935 255 255 255 255 
0.184182 0.110521 -0.169323 0.672917 0.471499 -0.569975 255 255 255 255 
-0.064924 -0.102809 0.183815 -0.325471 -0.300972 0.896373 255 255 255 255 
-0.064397 0.111689 0.0632157 -0.118565 -0.783069 -0.610529 255 255 255 255 
0.00456729 -0.251255 -0.193192 -6.48862e-005 -0.351828 -0.936065 255 255 255 255 
0.173103 0.134416 -0.164871 0.624285 0.443744 -0.64293 255 255 255 255 
-0.150429 -0.254997 -0.190835 -0.0380155 -0.431719 -0.901207 255 255 255 255 
-0.152369 0.0919834 -0.187627 -0.44486 0.300388 -0.843722 255 255 255 255 
0.00252224 0.146399 -0.0340293 0.0584182 -0.977109 0.204561 255 255 255 255 
-0.155978 -0.183698 0.0253855 0.898405 0.405213 -0.169323 255 255 255 255 
0.282369 -0.169878 -0.00621309 0.697278 -0.222314 0.681454 255 255 255 255 
0.258669 -0.031239 -0.0645996 0.57652 0.505423 0.642006 255 255 255 255 
0.184169 -0.121973 -0.0695455 -0.75855 0.513106 0.401652 255 255 255 255 
-0.0608977 -0.170526 0.120376 0.337524 -0.941316 -0.00142526 255 255 255 255 
-0.076574 -0.211438 -0.0939833 0.295625 0.589821 0.751476 255 255 255 255 
0.16438 -0.00725004 -0.20266 -0.0294537 0.0171605 -0.999419 255 255 255 255 
-0.0734587 0.0257796 0.158471 -0.419677 0.428914 0.79994 255 255 255 255 
0.355854 -0.19044 -0.14069 0.987993 -0.0372289 -0.149943 255 255 255 255 
0.00262523 -0.197189 -0.124424 -0.0278842 0.729448 0.683468 255 255 255 255 
-0.00261039 -0.298004 -0.108695 -0.000357887 -0.996575 0.0826908 255 255 255 255 
0.131515 -0.18545 -0.202716 -0.0740032 0.0556994 -0.995701 255 255 255 255 
-0.336892 -0.23656 -0.10072 -0.719158 -0.638715 0.273598 255 255 255 255 
0.239363 -0.169653 -0.201539 0.0887334 -0.0783334 -0.99297 255 255 255 255 
-0.0300329 0.018857 0.131362 -0.0377849 -0.315246 -0.948257 255 255 255 255 
-0.248471 -0.0702576 -0.193565 -0.357274 0.222096 -0.907209 255 255 255 255 
-0.341941 -0.131703 -0.111241 -0.929907 0.365199 0.0436132 255 255 255 255 
0.120486 -0.115591 0.0886969 -0.508461 0.375145 -0.77507 255 255 255 255 
0.0985783 -0.259402 -0.189562 0.0187663 -0.44209 -0.896774 255 255 255 255 
0.0938806 -0.184736 -0.108868 -0.427719 0.713529 0.554917 255 255 255 255 
-0.257357 -0.0295792 -0.170011 -0.617214 0.413216 -0.669551 255 255 255 255 
0.18387 -0.111336 0.0373535 -0.608352 0.617258 -0.498899 255 255 255 255 
0.0437803 0.170589 0.0413077 0.253706 0.698316 0.669319 255 255 255 255 
-0.10381 0.195279 -0.177569 -0.340789 0.294297 -0.89289 255 255 255 255 
0.265655 -0.275084 -0.146922 0.307249 -0.907605 -0.286096 255 255 255 255 
-0.249674 -0.202942 -0.201827 -0.1906 -0.189307 -0.963242 255 255 255 255 
0.305469 -0.0613816 -0.0961349 0.806849 0.513079 0.292822 255 255 255 255 
0.109786 0.17241 -0.046918 0.804261 0.278494 0.524982 255 255 255 255 
-0.102568 -0.185296 0.0909119 0.342122 -0.939638 -0.00568681 255 255 255 255 
0.111718 -0.143208 -0.158708 -0.563713 0.6963 0.44429 255 255 255 255 
0.204001 -0.145597 0.070783 0.585861 -0.329195 0.740539 255 255 255 255 
-0.318401 -0.126384 -0.0381945 -0.842578 0.126799 0.523435 255 255 255 255 
-0.111188 -0.0115911 -0.18973 0.28149 -0.138999 -0.949443 255 255 255 255 
0.128257 0.044019 -0.202053 -0.00821304 -0.0134016 -0.999876 255 255 255 255 
0.103482 0.21157 -0.17616 0.536541 0.515885 -0.667822 255 255 255 255 
-0.142314 -0.217691 0.0424875 0.722272 -0.688341 0.0671551 255 255 255 255 
0.159741 0.0674787 -0.197514 0.200967 0.138643 -0.969737 255 255 255 255 
0.0950228 0.190128 -0.0317727 0.760812 0.385113 0.522353 255 255 255 255 
0.0121304 0.224116 -0.00386784 0.119521 0.748883 0.651835 255 255 255 255 
0.137255 -0.28526 -0.161271 0.0599895 -0.92677 -0.370809 255 255 255 255 
-0.149441 -0.210906 0.0117019 0.938008 0.339364 -0.070514 255 255 255 255 
-0.156171 -0.19224 0.00983974 0.911825 0.393941 -0.115698 255 255 255 255 
-0.0848307 -0.293587 -0.147561 -0.0293763 -0.964333 -0.263058 255 255 255 255 
-0.00746497 -0.0117636 0.195084 -0.0633394 0.287895 0.955565 255 255 255 255 
0.299818 -0.265572 -0.116595 0.488669 -0.846519 0.211204 255 255 255 255 
0.106418 0.215146 -0.170702 0.532393 0.514524 -0.672178 255 255 255 255 
0.270533 -0.153038 0.0108943 0.705579 -0.155951 0.691257 255 255 255 255 
0.214317 -0.104772 0.00146764 -0.679304 0.710179 -0.184909 255 255 255 255 
-0.119329 -0.254731 -0.0497347 0.370616 0.470177 0.800985 255 255 255 255 
0.0927896 -0.0622993 0.121539 -0.324748 0.170151 -0.93037 255 255 255 255 
-0.142208 -0.245685 -0.00915197 0.949858 0.28345 0.132006 255 255 255 255 
0.0608828 0.0762291 -0.19425 -0.0846212 -0.123707 -0.988704 255 255 255 255 
0.291367 -0.203424 -0.0269979 0.649734 -0.395738 0.649028 255 255 255 255 
0.0340123 -0.299285 -0.11412 0.0126488 -0.999484 -0.0295361 255 255 255 255 
0.143529 -0.19114 0.00453146 -0.807416 0.556229 -0.196694 255 255 255 255 
0.0927647 -0.146151 -0.174883 -0.454443 0.786324 0.418541 255 255 255 255 
0.0623565 0.274726 -0.130105 0.569449 0.813625 0.117231 255 255 255 255 
-0.131877 -0.17665 0.103175 -0.389746 -0.564972 0.727259 255 255 255 255 
-0.0972629 0.0858898 -0.202009 -0.0486509 0.008652 -0.998778 255 255 255 255 
-0.129839 -0.116764 -0.147814 0.732592 0.366106 0.573826 255 255 255 255 
-0.167984 -0.08076 0.127273 -0.561207 -0.18794 0.806055 255 255 255 255 
-0.254308 -0.176764 0.0236735 -0.586558 -0.397424 0.705694 255 255 255 255 
-0.305958 -0.241699 -0.173265 -0.376261 -0.435725 -0.817662 255 255 255 255 
-0.301262 -0.182793 -0.0219278 -0.708779 -0.275451 0.649429 255 255 255 255 
0.191036 -0.272703 -0.0557793 0.165946 -0.901411 0.399899 255 255 255 255 
-0.33022 -0.22188 -0.169727 -0.454462 -0.213696 -0.864753 255 255 255 255 
-0.0828601 0.107047 -0.0854303 0.268528 -0.714098 0.646496 255 255 255 255 
-0.0241423 -0.206992 -0.111565 0.093951 0.676947 0.730011 255 255 255 255 
-0.0590833 0.120864 0.0495527 -0.09736 -0.840364 -0.533207 255 255 255 255 
-0.352908 -0.199391 -0.0980422 -0.954831 -0.0727998 0.288094 255 255 255 255 
0.10227 0.23416 -0.135984 0.727867 0.685457 0.0189059 255 255 255 255 
0.222373 -0.217794 0.0110353 0.407196 -0.645819 0.64584 255 255 255 255 
0.242012 -0.0733574 -0.0137078 0.530075 0.674491 0.51389 255 255 255 255 
-0.105752 -0.139628 -0.153961 0.555623 0.584155 0.591647 255 255 255 255 
0.1322 -0.0523918 -0.170174 -0.850998 -0.182897 0.492292 255 255 255 255 
-0.0575779 -0.101722 0.138515 0.060769 0.109923 -0.992081 255 255 255 255 
-0.232749 -0.0518455 -0.195267 -0.336238 0.220327 -0.915642 255 255 255 255 
-0.334161 -0.133238 -0.0660217 -0.905959 0.261806 0.332709 255 255 255 255 
0.0588303 0.085453 0.0848695 0.0876006 -0.563587 -0.821399 255 255 255 255 
-0.0397016 -0.295885 -0.0987279 -0.00798962 -0.990197 0.139449 255 255 255 255 
0.14314 -0.183 -0.0587836 -0.724339 0.59446 0.349215 255 255 255 255 
-0.0589999 0.0542587 -0.170517 0.499176 -0.709606 0.497275 255 255 255 255 
0.171809 0.0618778 -0.195439 0.235381 0.161243 -0.958434 255 255 255 255 
-0.16494 -0.16935 0.0203384 0.871535 0.459323 -0.171604 255 255 255 255 
0.247481 -0.261789 -0.0629657 0.314948 -0.847129 0.427996 255 255 255 255 
-0.135321 -0.255879 -0.19069 -0.0298514 -0.430986 -0.901865 255 255 255 255 
0.157524 -0.2176 -0.202211 0.014937 -0.19608 -0.980474 255 255 255 255 
0.355383 -0.195756 -0.114248 0.959909 -0.182816 0.21249 255 255 255 255 
0.162751 -0.14208 -0.0829402 -0.735755 0.542636 0.40523 255 255 255 255 
0.0536122 0.215762 -0.0114878 0.39062 0.701394 0.596207 255 255 255 255 
-0.0166312 -0.218952 -0.201162 0.0012181 -0.1224 -0.99248 255 255 255 255 
0.133869 -0.116789 0.077192 -0.549679 0.461149 -0.696559 255 255 255 255 
0.077126 0.261888 -0.148976 0.647538 0.760105 0.0541722 255 255 255 255 
-0.0983906 0.0436371 -0.198661 0.0646595 -0.0661249 -0.995714 255 255 255 255 
0.243157 -0.244511 -0.0309703 0.359152 -0.758747 0.543428 255 255 255 255 
-0.0421174 -0.0678744 0.199474 -0.252606 -0.078228 0.964402 255 255 255 255 
0.272127 0.00348283 -0.117638 0.832645 0.546177 0.0916077 255 255 255 255 
-0.0510241 0.0488233 0.153458 -0.222707 0.562898 0.795957 255 255 255 255 
0.129798 0.199269 -0.111181 0.780252 0.612362 0.12736 255 255 255 255 
0.259097 -0.193945 0.00554702 0.571499 -0.445828 0.688932 255 255 255 255 
-0.253767 -0.182775 0.0205723 -0.564811 -0.435729 0.700806 255 255 255 255 
0.179324 0.133129 -0.152023 0.805626 0.581086 -0.115355 255 255 255 255 
0.133509 -0.105981 0.0832181 -0.499098 0.430347 -0.752132 255 255 255 255 
0.271969 -0.204976 -0.0112803 0.577936 -0.470636 0.666702 255 255 255 255 
-0.0671603 0.206988 -0.0101406 -0.529044 0.656825 0.537302 255 255 255 255 
-0.110993 0.135529 -0.194016 -0.350118 0.243819 -0.904417 255 255 255 255 
-0.171672 -0.263674 -0.0339801 -0.0675611 -0.882372 0.465677 255 255 255 255 
0.0972008 -0.28984 -0.0819093 0.0217071 -0.959977 0.279235 255 255 255 255 
0.335901 -0.144004 -0.182847 0.532706 -0.00360266 -0.846293 255 255 255 255 
0.248686 -0.066251 -0.0398125 -0.653498 0.532419 0.538025 255 255 255 255 
0.251509 -0.0391006 -0.0552054 0.539586 0.518041 0.663687 255 255 255 255 
0.333543 -0.0944237 -0.109479 0.88429 0.438766 0.159738 255 255 255 255 
-0.337523 -0.186327 -0.0663148 -0.862858 -0.139416 0.48584 255 255 255 255 
-0.298767 -0.0649383 -0.145309 -0.780157 0.487395 -0.392175 255 255 255 255 
-0.0567361 0.0822546 -0.130601 0.35584 -0.752003 0.55486 255 255 255 255 
0.074566 -0.194461 -0.107633 -0.339241 0.722972 0.601853 255 255 255 255 
-0.0981239 0.00963905 0.136167 0.0305137 -0.197444 -0.979839 255 255 255 255 
0.14787 -0.0772069 -0.149078 -0.855235 0.0315209 0.51728 255 255 255 255 
0.0763058 -0.284652 -0.0741253 -0.121476 -0.65755 0.743553 255 255 255 255 
-0.0480388 0.201489 -0.194623 -0.205319 0.247302 -0.946935 255 255 255 255 
-0.289036 -0.0571317 -0.15331 -0.736301 0.470814 -0.485999 255 255 255 255 
0.0682939 -0.262816 -0.0585746 -0.148826 -0.592355 0.791812 255 255 255 255 
0.197455 -0.0167254 -0.200976 0.165024 0.114384 -0.979634 255 255 255 255 
-0.345224 -0.229022 -0.106525 -0.778893 -0.5816 0.234664 255 255 255 255 
0.00588293 -0.00989919 0.194829 0.00480466 0.284003 0.958811 255 255 255 255 
0.0902789 0.21056 -0.0407017 0.654876 0.570453 0.495703 255 255 255 255 
0.218769 -0.0408433 -0.19978 0.183498 0.115897 -0.976164 255 255 255 255 
0.247726 -0.0783756 -0.0119245 -0.683312 0.709362 0.172889 255 255 255 255 
0.028426 -0.0108961 0.192907 0.140393 0.26456 0.954095 255 255 255 255 
-0.0577831 -0.124493 0.131233 0.135538 0.104253 -0.985272 255 255 255 255 
0.3484 -0.221267 -0.150371 0.808842 -0.331191 -0.485888 255 255 255 255 
0.347263 -0.198388 -0.0947591 0.887796 -0.255437 0.382844 255 255 255 255 
0.198198 -0.204587 -0.202792 0.0511424 -0.169336 -0.984231 255 255 255 255 
0.114313 -0.26762 -0.184431 0.0274751 -0.483611 -0.874852 255 255 255 255 
-0.263632 -0.0260482 -0.0749181 -0.717947 0.561325 0.411662 255 255 255 255 
-0.0825182 0.218478 -0.0493349 -0.683532 0.610213 0.400529 255 255 255 255 
-0.295981 -0.261425 -0.0918344 -0.448869 -0.843374 0.295359 255 255 255 255 
-0.0315156 0.158887 0.0603119 -0.180324 0.698815 0.6922 255 255 255 255 
0.343317 -0.152956 -0.0757608 0.886867 -0.00940668 0.46193 255 255 255 255 
0.144482 -0.123754 0.0633344 -0.590402 0.504783 -0.629778 255 255 255 255 
0.168163 -0.22585 0.0297253 0.242371 -0.762292 0.600139 255 255 255 255 
-0.0994088 0.213958 -0.078079 -0.755932 0.589798 0.284087 255 255 255 255 
-0.182675 -0.00373113 -0.0865138 0.569166 -0.149247 0.808564 255 255 255 255 
0.201011 -0.246077 -0.19129 0.0940289 -0.436343 -0.894854 255 255 255 255 
0.0999324 0.201183 -0.0459649 0.738452 0.459076 0.4939 255 255 255 255 
-0.0967566 0.201918 -0.0549801 -0.735101 0.564636 0.37525 255 255 255 255 
-0.139524 -0.123722 0.133932 -0.478346 -0.367543 0.797557 255 255 255 255 
-0.0833529 0.00984166 0.136248 0.0139888 -0.227284 -0.973728 255 255 255 255 
-0.049457 -0.291486 -0.15306 -0.0140227 -0.956043 -0.292892 255 255 255 255 
-0.205548 -0.0573216 -0.0721376 0.654836 0.155053 0.739695 255 255 255 255 
-0.0178881 0.181405 0.0404123 -0.0935234 0.718149 0.689577 255 255 255 255 
-0.148816 -0.147968 -0.192835 0.152507 0.143764 -0.97779 255 255 255 255 
-0.0710386 0.123761 0.0479241 -0.102268 -0.844862 -0.525118 255 255 255 255 
-0.0926019 -0.297212 -0.122583 -0.0354366 -0.996996 -0.0688666 255 255 255 255 
0.194539 -0.208977 0.0355357 0.387829 -0.638097 0.665147 255 255 255 255 
0.266362 -0.0123649 -0.17058 0.703511 0.441647 -0.556794 255 255 255 255 
-0.0757238 -0.292548 -0.0800589 -0.023106 -0.98913 0.145215 255 255 255 255 
0.2118 -0.102052 0.0145584 -0.648225 0.696123 -0.308575 255 255 255 255 
-0.0490083 0.0564034 -0.17824 0.431105 -0.756256 0.492164 255 255 255 255 
-0.0520921 -0.135377 0.128349 0.191694 0.0807654 -0.978126 255 255 255 255 
0.0245665 -0.172923 -0.155946 -0.129368 0.802596 0.582326 255 255 255 255 
0.152756 0.043926 -0.201153 0.112943 0.0774235 -0.99058 255 255 255 255 
0.164659 -0.00084513 -0.100737 -0.620961 -0.248425 0.743433 255 255 255 255 
-0.28196 -0.0342083 -0.105295 -0.808609 0.561963 0.174211 255 255 255 255 
0.117992 0.21465 -0.107617 0.760379 0.636695 0.128232 255 255 255 255 
-0.202543 -0.0779344 0.0615477 0.482688 0.626648 -0.611821 255 255 255 255 
-0.283854 -0.0456969 -0.0866168 -0.776121 0.558135 0.293464 255 255 255 255 
0.207155 -0.290987 -0.112521 0.212036 -0.964477 0.15756 255 255 255 255 
-0.0206245 -0.291608 -0.152495 -0.0043479 -0.955743 -0.294172 255 255 255 255 
0.262516 -0.172253 -0.200928 0.141552 -0.120692 -0.982546 255 255 255 255 
-0.00183182 -0.295949 -0.140481 0.00101151 -0.968509 -0.248978 255 255 255 255 
0.241318 -0.240563 -0.0245675 0.369245 -0.738736 0.56385 255 255 255 255 
0.141785 -0.174295 0.0281251 -0.750876 0.524304 -0.40161 255 255 255 255 
-0.1237 -0.154048 0.125382 -0.412092 -0.490169 0.768059 255 255 255 255 
-0.209908 -0.220819 0.0203531 -0.36137 -0.674559 0.643725 255 255 255 255 
0.241095 0.00146413 -0.0706583 0.607131 0.471471 0.639615 255 255 255 255 
0.132473 0.0924095 -0.0767259 -0.323344 -0.501646 0.802372 255 255 255 255 
0.138681 -0.0868355 -0.167751 -0.857018 0.137321 0.496651 255 255 255 255 
-0.348911 -0.228917 -0.151692 -0.771825 -0.635823 0.00377636 255 255 255 255 
-0.0392268 0.0605511 -0.185665 0.171012 -0.273627 -0.946511 255 255 255 255 
0.061166 0.116248 0.0589243 0.223658 -0.753004 -0.618839 255 255 255 255 
-0.185089 0.0692427 -0.0661553 0.316515 -0.295012 0.901546 255 255 255 255 
0.116468 -0.20718 -0.0665471 -0.599587 0.612332 0.515311 255 255 255 255 
-0.109864 -0.14636 0.137804 -0.384626 -0.478244 0.789523 255 255 255 255 
-0.175979 -0.284978 -0.163758 -0.0813064 -0.72255 -0.686521 255 255 255 255 
0.0246628 -0.207673 -0.109491 -0.140187 0.721147 0.67845 255 255 255 255 
0.202492 -0.233631 -0.196448 0.0882678 -0.358916 -0.929187 255 255 255 255 
0.0885082 -0.241512 -0.0575476 -0.480607 0.597729 0.641668 255 255 255 255 
-0.244618 -0.284062 -0.149235 -0.244011 -0.967702 0.0633291 255 255 255 255 
0.147421 -0.17483 0.0180178 -0.766639 0.544893 -0.339642 255 255 255 255 
-0.282489 -0.0317037 -0.118586 -0.823037 0.563501 0.07125 255 255 255 255 
-0.0285266 -0.16392 -0.162706 0.183227 0.763237 0.619595 255 255 255 255 
-0.199475 0.0316314 -0.0707643 0.44293 -0.185655 0.877123 255 255 255 255 
0.133829 0.0394148 -0.105533 -0.548443 -0.432348 0.715741 255 255 255 255 
0.215188 -0.290207 -0.131107 0.174431 -0.954689 -0.241129 255 255 255 255 
-0.0189818 0.302284 -0.142389 -0.331228 0.930216 0.158073 255 255 255 255 
-0.0126384 -0.246675 -0.0807947 0.0450727 0.583335 0.81098 255 255 255 255 
-0.0276463 -0.297854 -0.129759 -0.00655302 -0.990366 -0.138321 255 255 255 255 
0.0956902 0.0312053 -0.151665 -0.598997 -0.603154 0.526695 255 255 255 255 
-0.051616 0.145892 -0.00638508 -0.0166215 -0.992001 -0.125132 255 255 255 255 
-0.0890305 0.117914 -0.0704517 0.211686 -0.714509 0.666833 255 255 255 255 
-0.273394 -0.0226901 -0.1032 -0.802693 0.567004 0.184908 255 255 255 255 
-0.358298 -0.177285 -0.138595 -0.987314 0.148782 0.0554552 255 255 255 255 
0.24449 -0.079246 -0.0204381 -0.686741 0.696874 0.206769 255 255 255 255 
-0.0883998 0.10648 -0.202377 -0.0728718 0.027502 -0.996962 255 255 255 255 
-0.256068 -0.019045 -0.164027 -0.638807 0.431099 -0.637243 255 255 255 255 
-0.0602921 -0.293321 -0.0845701 -0.0159499 -0.988362 0.151283 255 255 255 255 
-0.00910588 -0.0808351 0.202696 -0.0986431 -0.197657 0.975295 255 255 255 255 
-0.283907 -0.0410601 -0.143953 -0.742925 0.488187 -0.457969 255 255 255 255 
-0.0155647 -0.265572 -0.0691102 0.0670807 0.544252 0.836236 255 255 255 255 
0.0820055 0.0293252 -0.175064 -0.584076 -0.667321 0.462101 255 255 255 255 
-0.0165359 -0.11283 0.189903 -0.119943 -0.337062 0.933811 255 255 255 255 
0.0365114 -0.276575 -0.0729698 -0.120607 -0.645985 0.753762 255 255 255 255 
-0.0864046 -0.254232 -0.0636736 0.287118 0.440287 0.850712 255 255 255 255 
0.203079 -0.288317 -0.0979094 0.208202 -0.951306 0.227306 255 255 255 255 
-0.0608913 0.233401 -0.180289 -0.320504 0.385768 -0.865136 255 255 255 255 
0.00268961 -0.0490924 0.20646 -0.021164 0.0928694 0.995453 255 255 255 255 
0.0396273 -0.254174 -0.0677311 -0.225154 0.580921 0.7822 255 255 255 255 
-0.178378 0.0247547 -0.195347 -0.307788 0.209389 -0.928129 255 255 255 255 
-0.0550208 -0.289496 -0.0709069 -0.0134849 -0.980367 0.196721 255 255 255 255 
0.0997225 0.00777223 -0.172749 -0.679463 -0.505071 0.532197 255 255 255 255 
0.00620695 -0.291953 -0.0876653 -0.020556 -0.949041 0.31448 255 255 255 255 
-0.0977985 -0.1837 0.104969 0.340124 -0.940365 -0.00534822 255 255 255 255 
-0.167158 0.0976784 -0.174027 -0.662981 0.448768 -0.599219 255 255 255 255 
-0.322044 -0.256266 -0.131116 -0.594199 -0.803534 0.0355094 255 255 255 255 
0.0335497 -0.266097 -0.0649136 -0.123124 -0.636449 0.761429 255 255 255 255 
0.172768 0.0130997 -0.201152 0.118737 0.0851557 -0.989267 255 255 255 255 
0.0323512 0.190683 -0.20177 0.0379605 0.159092 -0.986534 255 255 255 255 
-0.0106067 0.132784 0.0248739 0.0259467 -0.916845 -0.398398 255 255 255 255 
0.132081 -0.236803 0.0185149 0.0835814 -0.841982 0.532992 255 255 255 255 
0.0624408 -0.0605583 0.194588 0.323053 0.0970481 0.941392 255 255 255 255 
-0.125116 -0.271266 -0.0445418 -0.0136407 -0.912918 0.407914 255 255 255 255 
0.0758846 -0.0959411 0.186372 0.340417 -0.128381 0.931469 255 255 255 255 
-0.0981324 -0.290133 -0.0757505 -0.0291438 -0.98206 0.186305 255 255 255 255 
0.0493647 -0.0578457 0.200034 0.246015 0.0996992 0.964125 255 255 255 255 
0.181264 -0.121982 0.0973729 0.588755 -0.278767 0.75872 255 255 255 255 
0.212028 -0.154364 0.0612434 0.578358 -0.355441 0.734278 255 255 255 255 
-0.233011 -0.170451 -0.205331 -0.123177 -0.0226334 -0.992126 255 255 255 255 
0.0225698 0.161518 0.0589628 0.132217 0.70526 0.696511 255 255 255 255 
-0.122457 -0.0259745 0.149573 -0.561588 0.220493 0.797497 255 255 255 255 
0.0800616 -0.0981475 0.118864 -0.378199 0.209333 -0.901746 255 255 255 255 
-0.0899476 -0.180886 0.108896 0.339502 -0.940595 -0.00445934 255 255 255 255 
-0.0408817 0.144786 -0.00276689 -0.00804434 -0.988889 -0.148437 255 255 255 255 
0.0581551 0.215971 -0.19421 0.20058 0.333239 -0.92126 255 255 255 255 
-0.0283602 -0.267508 -0.0708662 0.053397 -0.46166 0.885448 255 255 255 255 
-0.0518262 -0.16736 0.139248 -0.20576 -0.625141 0.752902 255 255 255 255 
-0.352005 -0.213216 -0.102206 -0.927928 -0.226433 0.296103 255 255 255 255 
-0.0252404 0.266563 -0.0524402 -0.155853 0.830861 0.53421 255 255 255 255 
-0.180564 -0.287339 -0.0870432 -0.10552 -0.964606 0.241663 255 255 255 255 
-0.213888 -0.257051 -0.0304378 -0.221179 -0.84044 0.494713 255 255 255 255 
0.327823 -0.120057 -0.178169 0.671679 0.240684 -0.700656 255 255 255 255 
-0.230604 -0.28661 -0.147962 -0.208505 -0.976135 0.0607158 255 255 255 255 
-0.136203 -0.139524 0.127617 -0.453466 -0.43095 0.780161 255 255 255 255 
-0.188535 -0.224559 0.0261294 -0.286755 -0.727909 0.622833 255 255 255 255 
0.0275659 -0.0844392 0.201116 0.0746889 -0.203754 0.976169 255 255 255 255 
0.0238708 -0.209888 -0.200619 -0.00454592 -0.0963377 -0.995338 255 255 255 255 
0.0843462 -0.296381 -0.136119 0.0362468 -0.986368 -0.160514 255 255 255 255 
-0.143167 0.0327023 -0.0981877 0.532254 -0.367118 0.762843 255 255 255 255 
-0.122111 -0.0558044 -0.170649 0.835083 -0.154771 0.527904 255 255 255 255 
-0.184746 -0.142971 -0.0522644 0.778535 0.455619 0.431617 255 255 255 255 
0.0565495 0.257803 -0.173718 0.262277 0.503605 -0.82316 255 255 255 255 
-0.133275 -0.0559698 0.116465 0.368134 0.385983 -0.845869 255 255 255 255 
-0.1196 -0.15987 -0.192185 0.138508 0.261675 -0.955166 255 255 255 255 
-0.331038 -0.141651 -0.0558892 -0.884274 0.121603 0.450857 255 255 255 255 
0.334547 -0.159085 -0.183432 0.535447 -0.0848184 -0.840299 255 255 255 255 
-0.0878712 -0.0418895 0.140746 0.120527 -0.00887599 -0.99267 255 255 255 255 
0.0676778 0.238893 -0.0491588 0.510737 0.71034 0.484319 255 255 255 255 
0.00486488 0.0919137 -0.138782 -0.0157232 -0.874257 0.485209 255 255 255 255 
-0.127748 -0.0239825 -0.191582 0.365259 -0.156212 -0.917705 255 255 255 255 
-0.322304 -0.248877 -0.161408 -0.4281 -0.427739 -0.796097 255 255 255 255 
0.265649 -0.102105 0.00363611 0.629283 0.593091 0.50224 255 255 255 255 
-0.25477 -0.268881 -0.0754242 -0.296852 -0.886447 0.355091 255 255 255 255 
0.168387 0.146682 -0.111649 0.805042 0.573907 0.15013 255 255 255 255 
0.0536142 0.278736 -0.159361 0.237319 0.589057 -0.772458 255 255 255 255 
-0.267049 -0.278685 -0.15113 -0.308428 -0.949908 0.0504659 255 255 255 255 
-0.0340278 0.072952 -0.187971 0.159738 -0.294976 -0.942058 255 255 255 255 
0.0427181 -0.285409 -0.165752 0.01214 -0.879442 -0.475851 255 255 255 255 
-0.0788367 0.0467984 -0.155648 0.591719 -0.627404 0.506195 255 255 255 255 
-0.100675 0.184474 -0.0409084 -0.730202 0.543012 0.414661 255 255 255 255 
0.0226757 0.188267 0.0312577 0.155076 0.717957 0.678594 255 255 255 255 
0.0881167 0.240235 -0.077794 0.63729 0.697757 0.327104 255 255 255 255 
-0.01399 0.146699 -0.0205287 0.0450698 -0.998792 -0.0195719 255 255 255 255 
0.107678 -0.146145 0.0846619 -0.57939 0.331502 -0.74459 255 255 255 255 
-0.224551 -0.139947 0.0616071 -0.602227 -0.309618 0.735839 255 255 255 255 
-0.0421023 -0.213299 -0.101839 0.166167 0.632191 0.756785 255 255 255 255 
-0.354448 -0.221351 -0.153647 -0.806281 -0.591253 0.0181801 255 255 255 255 
-0.0741345 0.256742 -0.109017 -0.701227 0.697856 0.145866 255 255 255 255 
-0.224574 0.0189185 -0.0693143 -0.679839 0.531503 0.505295 255 255 255 255 
-0.222005 0.0451651 -0.0808716 -0.815809 0.570705 0.0935512 255 255 255 255 
-0.35951 -0.204927 -0.154364 -0.526121 -0.0911635 -0.84551 255 255 255 255 
-0.0275673 0.298119 -0.158231 -0.0323213 0.606877 -0.794138 255 255 255 255 
-0.129882 0.139803 -0.0453526 -0.763714 0.507355 0.399164 255 255 255 255 
-0.208153 -0.0999351 0.0309905 0.593085 0.625309 -0.507187 255 255 255 255 
-0.0984141 -0.283788 -0.0573957 -0.024244 -0.968296 0.248627 255 255 255 255 
-0.112134 -0.277176 -0.0493333 -0.0184866 -0.942727 0.333053 255 255 255 255 
0.192002 -0.278871 -0.0682839 0.176706 -0.91891 0.352674 255 255 255 255 
-0.0204889 -0.159567 -0.171467 0.132596 0.771929 0.621727 255 255 255 255 
0.0259699 -0.157858 -0.180702 -0.149456 0.822052 0.549449 255 255 255 255 
-0.228163 -0.0902453 0.0203833 0.571856 0.630651 -0.524653 255 255 255 255 
0.0477621 0.286406 -0.152828 0.510523 0.857108 0.0687905 255 255 255 255 
0.151787 -0.0607837 0.0958408 -0.305794 0.561384 -0.768985 255 255 255 255 
0.128376 -0.0761365 0.150246 0.583707 0.00429409 0.811953 255 255 255 255 
-0.0821429 0.155136 0.0299932 -0.951535 -0.305701 0.0335946 255 255 255 255 
0.118014 -0.0202149 0.123587 0.681748 0.685704 0.255008 255 255 255 255 
-0.311151 -0.120558 -0.0288256 -0.823421 0.121693 0.554228 255 255 255 255 
-0.262751 -0.101629 0.0253669 -0.520067 0.771735 0.365999 255 255 255 255 
0.133539 -0.243425 0.000468984 -0.0108873 -0.870814 0.491492 255 255 255 255 
0.0806245 -0.0896768 0.185071 0.399018 -0.0415636 0.916001 255 255 255 255 
-0.262621 -0.0930772 0.0071031 -0.529567 0.762177 0.37235 255 255 255 255 
0.116767 -0.212467 0.0366429 -0.791457 0.493057 -0.361235 255 255 255 255 
0.346066 -0.130206 -0.0823326 0.903595 0.191877 0.383014 255 255 255 255 
-0.230084 -0.0933825 0.0700899 -0.633511 -0.224463 0.740459 255 255 255 255 
0.123422 -0.207869 0.0308775 -0.798508 0.514751 -0.312117 255 255 255 255 
-0.209815 -0.109388 0.0163321 0.649577 0.618652 -0.441948 255 255 255 255 
0.161089 0.0949388 -0.0659257 0.531398 0.329604 0.78037 255 255 255 255 
0.144012 0.0970856 -0.070249 -0.314948 -0.48457 0.816088 255 255 255 255 
0.0947359 -0.279243 -0.0658988 -0.0680722 -0.80797 0.585278 255 255 255 255 
-0.224142 -0.115342 0.0118469 0.769255 0.579818 0.268434 255 255 255 255 
-0.0104922 0.0307125 0.17465 -0.119575 0.47649 0.87101 255 255 255 255 
-0.237462 -0.0983 0.0626228 -0.639995 -0.226836 0.734133 255 255 255 255 
0.324908 -0.111343 -0.0635065 0.792453 0.389254 0.469573 255 255 255 255 
0.313817 -0.0835356 -0.0805304 0.780997 0.489635 0.387688 255 255 255 255 
-0.232675 -0.0955741 0.00757714 0.59491 0.629969 -0.499221 255 255 255 255 
0.29205 -0.144774 -0.200742 0.276997 -0.0307029 -0.96038 255 255 255 255 
-0.196444 -0.197825 -0.206547 -0.0300518 -0.10755 -0.993745 255 255 255 255 
0.33195 -0.0916103 -0.132425 0.901314 0.432838 -0.0168653 255 255 255 255 
0.349149 -0.12628 -0.114328 0.955365 0.295153 0.0127072 255 255 255 255 
0.346014 -0.123386 -0.13418 0.946218 0.304707 -0.10874 255 255 255 255 
0.329493 -0.135452 -0.185602 0.507503 0.0543157 -0.859936 255 255 255 255 
0.338712 -0.164994 -0.0706367 0.86059 -0.0836927 0.502374 255 255 255 255 
-0.108871 -0.0661136 0.122945 0.359334 0.352335 -0.864141 255 255 255 255 
0.135324 -0.255907 -0.0250885 -0.0503227 -0.877088 0.477687 255 255 255 255 
-0.0781766 0.144369 0.0401516 -0.96597 -0.257626 0.0230385 255 255 255 255 
0.0855243 -0.0492384 0.126798 -0.276138 0.111921 -0.954579 255 255 255 255 
-0.0406639 0.076622 0.133675 -0.16531 0.625104 0.762836 255 255 255 255 
-0.131987 0.170928 -0.0873278 -0.791636 0.539085 0.287576 255 255 255 255 
0.137018 -0.214497 0.0550004 0.253738 -0.735931 0.627712 255 255 255 255 
0.279985 -0.194591 -0.0124696 0.633555 -0.378543 0.674769 255 255 255 255 
0.136614 -0.0386955 0.120648 0.662851 0.726782 0.180047 255 255 255 255 
0.150711 -0.00342332 -0.199806 -0.218195 -0.0843311 -0.972255 255 255 255 255 
-0.00488686 -0.106846 0.139982 -0.0531358 0.121499 -0.991168 255 255 255 255 
0.205484 -0.0165349 -0.19963 0.201947 0.13367 -0.970232 255 255 255 255 
