ply
format ascii 1.0
comment VCGLIB generated
element vertex 624
property float x
property float y
property float z
property float nx
property float ny
property float nz
property uchar red
property uchar green
property uchar blue
property uchar alpha
element face 0
property list uchar int vertex_indices
end_header
0.0158214 -0.172196 -0.330748 -0.0131119 -0.0013708 -0.999913 255 255 255 255 
-0.0339906 0.12863 -0.219175 0.0209629 0.17084 0.985076 255 255 255 255 
-0.0321697 -0.297375 -0.30089 -0.0442321 -0.998916 0.014509 255 255 255 255 
-0.0120085 0.0058606 0.214081 -0.990615 0.0612675 0.122185 255 255 255 255 
-0.0568488 -0.134031 0.0876731 -0.0687882 -0.266104 0.961487 255 255 255 255 
-0.0496795 0.171721 -0.254546 -0.0413461 0.134798 0.99001 255 255 255 255 
-0.100843 0.0350641 -0.255287 -0.192466 0.0239775 0.981011 255 255 255 255 
-0.16427 0.237566 -0.328786 -0.0134235 -0.00167941 -0.999909 255 255 255 255 
-0.0824481 -0.00865018 -0.32973 -0.0126732 -0.00096255 -0.999919 255 255 255 255 
0.110112 -0.0975406 -0.210959 0.639106 -0.75044 0.168475 255 255 255 255 
-0.012803 0.219586 -0.2663 -0.00548359 0.141482 0.989926 255 255 255 255 
-0.0506758 0.0712097 -0.0350131 0.331645 0.812288 0.479792 255 255 255 255 
-0.15598 -0.0581766 -0.076539 -0.953976 0.299779 0.00791258 255 255 255 255 
-0.100781 0.116251 -0.329722 -0.0139703 -0.000848692 -0.999902 255 255 255 255 
-0.0253983 -0.153578 -0.330241 -0.0127652 -0.00135021 -0.999918 255 255 255 255 
-0.0696948 0.0824159 -0.0347777 0.213371 0.905179 0.367591 255 255 255 255 
-0.18657 0.156136 -0.317255 -0.992721 0.0246609 0.117884 255 255 255 255 
0.158192 0.0877564 0.0754138 0.101697 0.795881 0.596851 255 255 255 255 
-0.0825301 -0.13227 0.0854832 -0.112035 -0.320177 0.94071 255 255 255 255 
0.130591 0.0822164 -0.162194 0.562485 0.822459 0.0846817 255 255 255 255 
-0.0633963 -0.228683 -0.00352663 -0.166773 -0.953813 0.249857 255 255 255 255 
-0.0959826 -0.113593 0.0880627 -0.120367 -0.144638 0.982136 255 255 255 255 
-0.0838934 0.0178628 0.0323596 -0.287289 0.370609 0.883241 255 255 255 255 
-0.133226 0.00407608 0.0270839 -0.284209 0.279624 0.91708 255 255 255 255 
0.132803 0.131593 -0.220366 -0.722253 0.0535681 -0.689551 255 255 255 255 
-0.0397631 0.0401429 0.0730415 0.414572 -0.888646 0.196056 255 255 255 255 
0.0237402 0.17367 -0.258656 0.0687214 0.260985 0.962894 255 255 255 255 
0.0416942 -0.0998372 0.0529403 0.889977 -0.414209 -0.190715 255 255 255 255 
0.188296 0.0195882 -0.246586 0.910481 -0.410583 0.0494555 255 255 255 255 
0.0593179 0.299642 -0.28581 0.0277724 0.999549 -0.0114199 255 255 255 255 
0.140965 0.026487 0.135701 0.847027 0.0292905 0.530742 255 255 255 255 
0.169482 0.0398639 -0.0252216 0.926548 -0.376102 -0.00743848 255 255 255 255 
0.0649204 -0.0656516 0.063167 0.066947 -0.976268 -0.205959 255 255 255 255 
-0.153163 -0.010307 0.0104509 -0.88824 0.268868 -0.372477 255 255 255 255 
0.123533 -0.0650417 -0.0328859 0.809415 -0.561178 0.172995 255 255 255 255 
0.0723202 -0.0178846 0.236119 0.68909 -0.351407 0.633773 255 255 255 255 
-0.062762 0.256541 -0.330169 -0.0126705 -0.00135548 -0.999919 255 255 255 255 
0.0855423 -0.0895665 -0.103041 -0.42159 -0.902938 0.0834527 255 255 255 255 
-0.172397 -0.21384 -0.0314871 -0.124155 -0.990941 0.0511925 255 255 255 255 
0.0566321 -0.243991 -0.240269 0.167828 -0.539516 0.82508 255 255 255 255 
-0.198668 -0.190025 -0.0175283 -0.890536 0.337806 -0.304686 255 255 255 255 
0.155907 -0.0200785 -0.124476 0.847531 -0.527588 0.0578112 255 255 255 255 
0.0442793 0.140688 -0.242092 0.237517 0.416596 0.877515 255 255 255 255 
-0.00604368 -0.245968 -0.225528 0.110306 -0.649073 0.752687 255 255 255 255 
-0.180875 0.235501 -0.287314 -0.997013 0.033447 0.0696208 255 255 255 255 
-0.0406874 -0.169912 0.0754911 -0.0677512 -0.493493 0.867107 255 255 255 255 
-0.123432 -0.166129 -0.0643457 -0.318395 -0.947469 -0.0304432 255 255 255 255 
0.134545 -0.0344302 0.0967193 0.751312 -0.657902 -0.0519088 255 255 255 255 
-0.0515612 -0.189655 -0.20847 -0.472123 -0.875489 0.103045 255 255 255 255 
0.040929 -0.113893 0.208751 0.566247 -0.788424 0.240316 255 255 255 255 
0.175134 0.1137 -0.334246 0.0321255 0.000913926 -0.999483 255 255 255 255 
0.147668 -0.0300729 -0.066562 0.842524 -0.530192 0.0951323 255 255 255 255 
-0.15844 0.054241 -0.270459 -0.223697 0.0156595 0.974533 255 255 255 255 
-0.115647 -0.165065 -0.0736614 -0.311193 -0.950229 -0.0149663 255 255 255 255 
0.0606982 -0.0810584 -0.0584524 -0.402483 -0.884454 0.236112 255 255 255 255 
-0.0323148 -0.104107 0.0880755 0.0560616 -0.00359169 0.998421 255 255 255 255 
0.0207 0.116267 -0.0309721 -0.726011 0.275105 0.630258 255 255 255 255 
0.0280842 -0.112623 0.23219 0.0462323 -0.4491 0.892285 255 255 255 255 
0.126182 0.0660387 -0.333547 0.00292322 0.000538694 -0.999996 255 255 255 255 
0.0080701 0.0441738 0.112204 0.153584 -0.879553 -0.450332 255 255 255 255 
0.131639 -0.077314 -0.225836 0.777725 -0.61892 0.109916 255 255 255 255 
0.107248 0.140524 0.000409975 0.302679 0.760143 0.57495 255 255 255 255 
0.131312 -0.115089 -0.249219 0.469076 -0.145692 0.871058 255 255 255 255 
0.134129 -0.0292999 0.139724 0.857452 -0.366544 0.361138 255 255 255 255 
0.14377 -0.0241415 -0.0204417 0.84074 -0.523063 0.139864 255 255 255 255 
0.0377085 -0.0722018 -0.101161 0.881327 -0.47141 0.0321807 255 255 255 255 
-0.175055 -0.116837 -0.118981 -0.954741 0.297196 0.012016 255 255 255 255 
-0.175981 -0.105577 -0.272668 -0.955874 0.277696 0.095868 255 255 255 255 
-0.171796 -0.0957765 -0.328528 -0.0157606 -0.00140679 -0.999875 255 255 255 255 
0.0775562 -0.0564155 0.0448874 0.312742 -0.947549 -0.0659051 255 255 255 255 
0.0109722 0.0828141 -0.0554734 -0.623555 0.507382 -0.594763 255 255 255 255 
0.0278521 -0.11237 -0.171117 0.8063 -0.402021 0.433888 255 255 255 255 
0.0199076 0.243946 -0.269347 0.0198803 0.165799 0.985959 255 255 255 255 
-0.180386 -0.131985 -0.167628 -0.958322 0.285374 0.0133981 255 255 255 255 
-0.170556 -0.107859 -0.0603155 -0.949949 0.312341 -0.00629464 255 255 255 255 
-0.0427672 0.0416972 0.0851047 0.419343 -0.886241 0.196795 255 255 255 255 
0.189152 0.027206 -0.219274 0.914233 -0.402959 0.0424407 255 255 255 255 
-0.0520053 -0.188653 -0.20023 -0.491501 -0.865213 0.0991606 255 255 255 255 
0.0913461 0.044443 0.217049 0.458105 0.864558 0.206589 255 255 255 255 
0.0480485 0.031424 0.0523485 -0.829335 0.503078 -0.243136 255 255 255 255 
0.000744313 -0.182616 -0.17964 0.739779 -0.350797 0.574167 255 255 255 255 
-0.0339164 0.0817564 -0.330369 -0.0123399 -0.000673234 -0.999924 255 255 255 255 
-0.0678453 0.293682 -0.278812 -0.032351 0.273554 0.961312 255 255 255 255 
0.0408662 -0.0707547 -0.00801172 0.906279 -0.365849 -0.211692 255 255 255 255 
-0.112715 -0.0164544 0.254041 -0.925862 0.350761 -0.140523 255 255 255 255 
-0.0557586 0.254518 -0.330252 -0.0125257 -0.00128829 -0.999921 255 255 255 255 
-0.132348 -0.260501 -0.328884 -0.017301 -0.00385583 -0.999843 255 255 255 255 
0.169379 0.00905908 -0.0867898 0.850587 -0.525564 0.0168273 255 255 255 255 
0.0293485 -0.111708 0.00133347 0.911379 -0.359176 -0.20095 255 255 255 255 
-0.0510206 0.0865186 -0.216755 -0.0360385 0.0935201 0.994965 255 255 255 255 
-0.0822634 -0.221947 0.0133473 -0.16934 -0.941575 0.291137 255 255 255 255 
-0.135389 0.0347815 -0.0274615 -0.956584 0.198631 -0.213289 255 255 255 255 
0.0754361 -0.154926 -0.230084 0.53573 -0.257048 0.804313 255 255 255 255 
-0.0502439 0.0228122 -0.172914 -0.603394 0.658886 0.449204 255 255 255 255 
-0.0225412 -0.0717708 0.154828 -0.949624 0.179843 -0.256653 255 255 255 255 
-0.17179 0.0404181 -0.32875 -0.0301258 0.00118032 -0.999545 255 255 255 255 
0.0436598 0.119074 -0.00447361 -0.731309 0.291943 0.616406 255 255 255 255 
0.00936209 0.0115421 0.0487069 -0.0548516 0.478453 0.876398 255 255 255 255 
0.0126541 -0.257496 -0.238454 0.0978438 -0.631222 0.769406 255 255 255 255 
-0.117992 -0.0645719 -0.329299 -0.013946 -0.00117711 -0.999902 255 255 255 255 
-0.116094 -0.163936 -0.13186 -0.292638 -0.955959 0.0224898 255 255 255 255 
0.0665539 0.195166 -0.051809 0.284366 0.806183 0.518849 255 255 255 255 
-0.0846936 0.0137604 0.0480695 0.513788 -0.823924 0.239104 255 255 255 255 
-0.141542 0.201519 -0.329163 -0.0126343 -0.000706605 -0.99992 255 255 255 255 
0.0169144 -0.125542 -0.10325 0.920342 -0.390597 0.0201009 255 255 255 255 
-0.106668 -0.198594 -0.262843 -0.132451 -0.0845807 0.987574 255 255 255 255 
-0.161277 0.257246 -0.281152 -0.656995 0.753872 0.00596307 255 255 255 255 
0.110028 -0.226384 -0.332056 -0.0130056 -0.000871508 -0.999915 255 255 255 255 
-0.0633393 -0.0994304 0.0932166 -0.024411 0.0288425 0.999286 255 255 255 255 
0.168482 -0.240065 -0.332973 -0.00597929 -0.00119778 -0.999981 255 255 255 255 
-0.132361 0.0730279 -0.0278214 -0.928229 0.277936 -0.24727 255 255 255 255 
0.119758 0.0952814 -0.332808 -0.00583439 0.000396836 -0.999983 255 255 255 255 
0.0165515 -0.299957 -0.281537 -0.0471971 -0.998841 0.00943377 255 255 255 255 
-0.15172 -0.0202843 0.0372417 -0.203142 0.974054 0.0997648 255 255 255 255 
0.101361 0.119701 -0.332157 -0.0109102 0.000259411 -0.99994 255 255 255 255 
-0.074854 -0.00231923 0.322598 -0.18597 0.325063 0.927227 255 255 255 255 
0.102053 0.0729717 0.0943582 -0.330589 0.778842 0.533026 255 255 255 255 
-0.108474 0.000715837 0.0402494 -0.254391 0.261937 0.930953 255 255 255 255 
0.0303099 0.104269 -0.186495 -0.239903 0.970686 0.0146505 255 255 255 255 
-0.04193 0.0635817 -0.214916 -0.0434581 0.0904761 0.99495 255 255 255 255 
-0.00612345 -0.180183 -0.0930382 0.916843 -0.399171 0.00783274 255 255 255 255 
-0.145213 0.272426 -0.285879 -0.642284 0.766373 0.0119648 255 255 255 255 
-0.065672 -0.108371 0.141699 -0.502193 -0.709774 0.493987 255 255 255 255 
-0.17415 0.219924 -0.328681 -0.0131663 -0.00131821 -0.999912 255 255 255 255 
-0.0934603 -0.0033621 -0.0789417 0.256266 0.961299 -0.101149 255 255 255 255 
0.0174252 -0.113356 -0.330839 -0.0128336 -0.00107777 -0.999917 255 255 255 255 
0.133234 0.0246437 0.15364 0.860923 -0.0575007 0.505476 255 255 255 255 
0.137003 0.0511362 -0.334073 0.0110457 0.000682667 -0.999939 255 255 255 255 
0.0914037 0.168615 -0.0789637 0.783276 0.576849 0.231784 255 255 255 255 
-0.0424337 0.296476 -0.278353 -0.0240265 0.245215 0.969171 255 255 255 255 
-0.0168625 0.134124 -0.330602 -0.0119578 -0.000547099 -0.999928 255 255 255 255 
0.0757105 -0.0853699 -0.0888832 -0.421268 -0.901006 0.103545 255 255 255 255 
0.209614 0.113019 -0.288389 0.999498 -0.00667658 0.0309572 255 255 255 255 
0.186974 0.0271919 -0.174856 0.889999 -0.45368 0.0455799 255 255 255 255 
-0.109589 0.0555262 -0.259283 -0.194485 0.0225724 0.980646 255 255 255 255 
0.0786257 0.200272 -0.146386 0.380713 0.851552 -0.360439 255 255 255 255 
0.118529 -0.0506344 0.0869299 0.680803 -0.728921 -0.0719739 255 255 255 255 
-0.0512071 -0.296773 -0.283681 -0.0444919 -0.998969 0.00906846 255 255 255 255 
0.0928385 0.183543 -0.266174 0.123664 0.124125 0.984531 255 255 255 255 
0.0207665 0.0875849 0.159564 0.421874 0.892053 0.16206 255 255 255 255 
0.0548013 -0.0615833 0.0672695 0.209093 0.0935827 0.973408 255 255 255 255 
-0.100243 -0.0581924 0.322707 -0.720868 0.00717129 0.693036 255 255 255 255 
-0.068548 -0.225 0.0103937 -0.164915 -0.941334 0.294436 255 255 255 255 
-0.181915 -0.23708 -0.307424 -0.732865 -0.680146 0.0176096 255 255 255 255 
-0.0407825 -0.0630471 0.204406 0.485534 -0.828051 -0.280336 255 255 255 255 
0.0204861 -0.0431821 0.262106 0.412602 -0.341284 0.844562 255 255 255 255 
0.113254 0.150892 -0.117657 0.781863 0.323606 0.532888 255 255 255 255 
-0.158214 -0.0675878 -0.228917 -0.951731 0.302747 0.0505272 255 255 255 255 
-0.175365 0.0695036 -0.328624 -0.0236732 -0.000240134 -0.99972 255 255 255 255 
0.107379 0.186271 -0.145369 0.445945 0.808363 -0.384294 255 255 255 255 
-0.00325102 0.0511777 0.0962371 0.181733 -0.911043 -0.3701 255 255 255 255 
0.203679 -0.0656657 -0.29974 0.999134 -0.0416094 4.32912e-006 255 255 255 255 
-0.099774 0.241794 -0.273236 -0.0435977 0.122828 0.99147 255 255 255 255 
-0.120191 0.00257891 -0.222804 0.184367 0.982422 -0.0292503 255 255 255 255 
0.104272 0.102929 -0.187711 0.507966 0.843277 0.175653 255 255 255 255 
-0.0204824 -0.132141 0.198916 -0.796813 -0.199809 0.570232 255 255 255 255 
-0.0847433 0.0310647 0.102011 0.576034 -0.763234 0.292677 255 255 255 255 
-0.0504883 -0.107269 0.157216 -0.732439 -0.366546 0.57374 255 255 255 255 
0.061168 0.299229 -0.316763 0.0269161 0.999562 -0.0122758 255 255 255 255 
-0.011234 0.233943 -0.267597 -0.00491871 0.147216 0.989092 255 255 255 255 
0.0625143 -0.0506597 0.00656512 0.33386 -0.939081 0.0816288 255 255 255 255 
-0.146224 -0.0251588 -0.116671 -0.952849 0.303362 0.00704252 255 255 255 255 
-0.150733 -0.154969 -0.195537 -0.30894 -0.950285 0.0389297 255 255 255 255 
-0.0702288 -0.211873 -0.255549 -0.211436 -0.155084 0.96501 255 255 255 255 
0.0713727 -0.0912174 0.147494 0.456249 -0.886647 -0.0754571 255 255 255 255 
0.0484963 0.0684498 0.163991 0.368675 0.916768 0.153669 255 255 255 255 
-0.0596993 0.0330019 -0.195048 -0.674287 0.598994 0.431906 255 255 255 255 
0.201832 0.0527163 -0.278833 0.771598 0.0389144 0.634919 255 255 255 255 
-0.0908991 -0.210028 0.0441934 -0.166022 -0.905553 0.390397 255 255 255 255 
-0.023805 -0.0908861 0.086199 0.0926838 0.0460782 0.994629 255 255 255 255 
-0.148392 -0.0992017 0.044023 -0.0923256 0.0446241 0.994728 255 255 255 255 
-0.0678187 0.124208 -0.230132 -0.794209 -0.000372747 0.607645 255 255 255 255 
0.0259485 0.121231 -0.0294816 -0.923888 -0.382539 -0.00980007 255 255 255 255 
-0.194028 -0.166416 0.0283495 -0.826113 0.451008 0.337831 255 255 255 255 
-0.0349253 -0.237321 -0.24519 -0.160135 -0.413386 0.896364 255 255 255 255 
-0.0314032 0.293694 -0.277253 -0.0179694 0.228797 0.973308 255 255 255 255 
0.0965291 0.116435 -0.237398 0.433191 0.702856 0.564215 255 255 255 255 
0.149309 0.213759 -0.332706 -0.00715785 0.00382346 -0.999967 255 255 255 255 
0.0827981 0.146354 -0.17013 -0.584886 0.126094 -0.801254 255 255 255 255 
0.0173754 0.0615452 0.0036733 -0.0472244 0.861919 0.504842 255 255 255 255 
0.0455069 -0.0714726 0.0149286 0.895422 -0.381188 -0.230032 255 255 255 255 
-0.0731503 0.162274 -0.253511 -0.0990319 0.109455 0.989046 255 255 255 255 
0.0226748 -0.110336 -0.115728 0.917542 -0.395489 0.0412947 255 255 255 255 
-0.155161 -0.0519633 -0.147787 -0.953108 0.302523 0.00807561 255 255 255 255 
0.00331864 0.0235509 0.246116 -0.935786 0.0572653 0.347887 255 255 255 255 
0.15122 -0.0262357 -0.104941 0.844448 -0.531963 0.0626334 255 255 255 255 
-0.0357595 0.161712 -0.330401 -0.0119631 -0.000792974 -0.999928 255 255 255 255 
-0.0065151 0.065989 0.178479 -0.783222 0.621412 0.0202592 255 255 255 255 
0.0445826 0.0462873 0.0541216 -0.435517 0.703419 0.561717 255 255 255 255 
-0.118535 -0.294459 -0.311567 -0.0727359 -0.99734 0.00482409 255 255 255 255 
-0.0830474 -0.269627 -0.267729 -0.151971 -0.238317 0.959224 255 255 255 255 
-0.137019 -0.00545488 -0.232183 -0.953889 0.29968 0.0169465 255 255 255 255 
0.155437 -0.0103115 -0.0421149 0.856099 -0.507992 0.0950731 255 255 255 255 
-0.0868155 -0.0766447 0.0926042 -0.166041 0.395316 0.903413 255 255 255 255 
-0.000946117 -0.171596 -0.33053 -0.0129827 -0.00142365 -0.999915 255 255 255 255 
0.0708169 -0.150948 -0.331503 -0.013196 -0.000883124 -0.999913 255 255 255 255 
0.0788711 0.177083 -0.165116 -0.581359 0.0476895 -0.812249 255 255 255 255 
-0.0331932 -0.202866 -0.184388 -0.611265 -0.78482 0.102045 255 255 255 255 
0.109605 -0.030811 0.180895 0.792474 -0.324616 0.516342 255 255 255 255 
-0.0602194 -0.181573 -0.0634677 -0.219179 -0.975665 0.00617375 255 255 255 255 
-0.172789 -0.145911 -0.157621 -0.308964 -0.950874 0.0194955 255 255 255 255 
0.0422144 0.276479 -0.332201 -0.010708 0.0477948 -0.9988 255 255 255 255 
-0.131526 -0.162066 -0.216624 -0.316223 -0.947294 0.0513556 255 255 255 255 
-0.0042048 0.12799 -0.33075 -0.0120007 -0.000495531 -0.999928 255 255 255 255 
-0.0162884 -0.178783 0.0710752 -0.0353355 -0.533965 0.844768 255 255 255 255 
0.210616 0.0829418 -0.308964 0.998602 -0.0358539 0.0388437 255 255 255 255 
0.0949202 0.0629552 0.104367 -0.310774 0.808209 0.500217 255 255 255 255 
-0.14739 -0.0295207 -0.193065 -0.951969 0.306173 0.00354251 255 255 255 255 
-0.0787472 -0.178336 -0.212115 -0.353 -0.932167 0.0803465 255 255 255 255 
0.00473204 0.0776665 0.202947 -0.710954 0.702279 0.0367125 255 255 255 255 
0.1376 -0.133972 -0.332441 -0.0118277 -0.000107251 -0.99993 255 255 255 255 
0.105964 -0.0672 -0.332044 -0.0125746 -0.000809013 -0.999921 255 255 255 255 
0.0565552 0.176208 -0.020077 0.200855 0.793361 0.574661 255 255 255 255 
-0.0335028 -0.186859 -0.119822 -0.248686 -0.968253 0.0253117 255 255 255 255 
0.121246 -0.082585 -0.332231 -0.0123197 -0.000723768 -0.999924 255 255 255 255 
0.079864 0.114755 -0.202658 -0.204418 0.978408 -0.030514 255 255 255 255 
-0.06687 -0.0504501 0.337476 0.164351 -0.595165 0.786617 255 255 255 255 
0.170818 0.0640854 0.00500616 0.965441 -0.254171 -0.0576298 255 255 255 255 
0.0581034 -0.137326 -0.331343 -0.0130535 -0.000960867 -0.999914 255 255 255 255 
0.0414896 -0.0824152 0.0136892 0.898925 -0.375881 -0.22505 255 255 255 255 
-0.187325 0.0779097 -0.311785 -0.99832 0.0376827 0.0440041 255 255 255 255 
-0.1102 -0.170514 -0.242852 -0.331271 -0.941303 0.0648755 255 255 255 255 
-0.0327402 -0.133136 0.0890601 -0.0231164 -0.232327 0.972363 255 255 255 255 
0.0424123 -0.207199 -0.331057 -0.0136079 -0.00145367 -0.999906 255 255 255 255 
-0.171285 0.109749 -0.328782 -0.0247835 -0.00106024 -0.999692 255 255 255 255 
0.033513 0.262602 -0.272261 0.0219198 0.196785 0.980202 255 255 255 255 
-0.127386 -0.213319 -0.265166 -0.129875 -0.0996203 0.986513 255 255 255 255 
-0.0488459 -0.0741167 0.19901 -0.241777 -0.843706 0.479275 255 255 255 255 
0.0046207 0.0816664 0.176484 -0.798478 0.601088 0.0335425 255 255 255 255 
0.092177 0.0543372 0.125896 0.0168857 0.943937 0.329694 255 255 255 255 
0.115618 -0.120857 -0.243262 0.475722 -0.183837 0.86017 255 255 255 255 
-0.0966123 0.00919153 0.0645577 0.555619 -0.786344 0.270092 255 255 255 255 
-0.158734 -0.169582 0.0726362 -0.0752194 -0.243457 0.966991 255 255 255 255 
0.0818594 0.207047 -0.117835 0.686458 0.646928 0.332053 255 255 255 255 
0.0792828 -0.0903094 -0.163612 -0.414978 -0.90679 0.0743261 255 255 255 255 
-0.08578 -0.270602 -0.329324 -0.0123282 -0.00128782 -0.999923 255 255 255 255 
0.158113 0.257962 -0.332708 -0.00567598 0.00607176 -0.999965 255 255 255 255 
-0.141149 -0.220555 -0.329144 -0.0221132 -0.00539441 -0.999741 255 255 255 255 
0.1675 -0.0720386 -0.262076 0.537652 -0.0617958 0.840899 255 255 255 255 
0.0213028 -0.0264797 -0.330971 -0.0126348 -0.000677271 -0.99992 255 255 255 255 
0.102165 -0.0584076 0.0649604 0.586226 -0.80587 -0.0831472 255 255 255 255 
0.116947 0.116488 -0.215734 -0.103037 0.994598 0.0126124 255 255 255 255 
0.114608 0.117836 -0.147772 0.234494 -0.521903 0.82014 255 255 255 255 
-0.0148303 0.0741874 -0.0395108 0.126054 0.912755 0.388573 255 255 255 255 
-0.0735867 -0.106529 0.0945548 -0.0842317 0.0382794 0.995711 255 255 255 255 
-0.016591 0.0218338 -0.128891 -0.60234 0.65043 0.462739 255 255 255 255 
0.126392 -0.0495334 0.136643 0.738121 -0.671115 0.0691524 255 255 255 255 
0.0769099 0.272417 -0.274876 0.042312 0.196743 0.979542 255 255 255 255 
-0.0753341 -0.197586 0.0616005 -0.0857886 -0.580532 0.809705 255 255 255 255 
0.0251906 0.0766514 0.136915 0.304555 0.934888 0.182295 255 255 255 255 
0.0391107 0.205435 -0.0546654 0.23153 0.814044 0.53266 255 255 255 255 
0.088557 0.113393 -0.14508 0.555313 0.830286 0.047457 255 255 255 255 
0.0380921 -0.0482024 0.0711845 0.18596 0.198308 0.962337 255 255 255 255 
0.162545 0.0610172 -0.0506479 0.56165 0.82737 0.0028051 255 255 255 255 
-0.138083 0.0099418 -0.0150087 -0.949899 0.232868 -0.208481 255 255 255 255 
0.10431 0.121078 -0.167162 -0.205735 0.975047 -0.0834056 255 255 255 255 
0.0579625 0.220129 -0.112482 0.395426 0.908729 -0.133602 255 255 255 255 
-0.03323 -0.230735 0.00316019 -0.153226 -0.942874 0.295822 255 255 255 255 
0.0966927 0.164086 -0.0907913 0.789469 0.514228 0.335125 255 255 255 255 
-0.0956337 -0.0196789 -0.329577 -0.0129678 -0.00100283 -0.999915 255 255 255 255 
0.027245 0.0783049 -0.159412 -0.731478 0.606042 0.312496 255 255 255 255 
0.108295 0.298743 -0.325545 0.0291263 0.999394 0.0190527 255 255 255 255 
0.205732 -0.0137245 -0.295829 0.998434 -0.0553339 -0.00827328 255 255 255 255 
0.0355914 0.0746609 0.150249 0.351114 0.921346 0.166853 255 255 255 255 
-0.0698792 -0.177407 -0.0971594 -0.256415 -0.966524 0.00914839 255 255 255 255 
0.0318751 0.0992301 -0.059677 -0.69324 0.536646 -0.48107 255 255 255 255 
0.0701022 0.0564302 0.095824 -0.328322 0.827774 0.454966 255 255 255 255 
0.0403065 -0.132573 -0.331115 -0.0129727 -0.00104466 -0.999915 255 255 255 255 
0.105239 -0.0367625 -0.00853848 0.49278 -0.870072 0.0119466 255 255 255 255 
0.153516 0.274139 -0.332612 -0.00751679 0.00618251 -0.999953 255 255 255 255 
0.215496 0.20889 -0.299401 0.992875 -0.00887495 0.118829 255 255 255 255 
-0.154582 0.0323278 -0.269488 -0.215068 0.0156519 0.976474 255 255 255 255 
-0.050838 0.000466382 0.24953 0.0653119 0.995438 -0.0695507 255 255 255 255 
0.0946833 0.17753 -0.101724 0.772874 0.45642 0.440847 255 255 255 255 
-0.0237355 -0.24238 -0.239482 -0.0808407 -0.505922 0.858783 255 255 255 255 
-0.0226736 -0.0497212 0.10789 -0.475897 -0.8149 -0.330847 255 255 255 255 
0.022096 0.0906042 -0.199843 -0.721269 0.579429 0.379516 255 255 255 255 
0.0178602 0.0886299 0.174137 0.434235 0.885216 0.166832 255 255 255 255 
0.00806918 0.21536 -0.0837201 -0.48743 0.660214 0.571428 255 255 255 255 
-0.0978308 -0.0930486 -0.329444 -0.012886 -0.00126507 -0.999916 255 255 255 255 
0.188524 -0.242606 -0.314028 0.698757 -0.715073 -0.0202088 255 255 255 255 
-0.0739604 -0.222191 -0.0477652 -0.172697 -0.980549 0.0932674 255 255 255 255 
0.0973058 -0.230337 -0.257373 0.180542 -0.280004 0.942869 255 255 255 255 
0.193745 -0.0845081 -0.333113 -0.0119127 -0.000967379 -0.999929 255 255 255 255 
-0.0217987 -0.118824 0.1999 -0.80491 -0.277049 0.524751 255 255 255 255 
0.0105953 0.0419658 0.0566534 0.71972 -0.0517858 -0.692331 255 255 255 255 
-0.164059 -0.209237 0.00679834 -0.144202 -0.971142 0.189969 255 255 255 255 
-0.0480489 0.0760907 -0.330208 -0.012438 -0.000774404 -0.999922 255 255 255 255 
-0.18404 0.165701 -0.297458 -0.992168 0.0247297 0.122441 255 255 255 255 
-0.00950363 -0.00338471 0.134777 -0.98933 0.113699 -0.0910975 255 255 255 255 
-0.0634107 -0.150263 0.0818297 -0.10693 -0.413523 0.904193 255 255 255 255 
0.149463 0.157751 -0.332866 -0.00737944 0.00141407 -0.999972 255 255 255 255 
-0.0628663 -0.00346059 -0.146666 -0.54384 0.727204 0.418823 255 255 255 255 
-0.0863073 0.105833 -0.329895 -0.0137843 -0.000838169 -0.999905 255 255 255 255 
-0.144086 -0.0260489 -0.0590131 -0.960167 0.278241 -0.0257016 255 255 255 255 
-0.00244851 -0.209411 -0.330452 -0.0131762 -0.00179596 -0.999912 255 255 255 255 
0.0816696 -0.0904334 -0.0670052 -0.421024 -0.889225 0.178934 255 255 255 255 
0.0165511 -0.124563 -0.0498484 0.925068 -0.376265 -0.0517043 255 255 255 255 
0.0411847 -0.180235 -0.331075 -0.0133457 -0.00126849 -0.99991 255 255 255 255 
0.119645 0.089232 -0.0865003 0.56646 0.824003 -0.0119634 255 255 255 255 
-0.143637 -0.061552 0.0500074 -0.113442 0.0532904 0.992114 255 255 255 255 
0.0585622 -0.143372 -0.215432 0.588542 -0.302545 0.749724 255 255 255 255 
-0.0335793 -0.107429 0.185856 -0.802529 -0.217118 0.555704 255 255 255 255 
-0.0475501 -0.00283966 0.325251 -0.127762 0.345142 0.929814 255 255 255 255 
0.0765506 0.140584 -0.135923 -0.861373 0.498761 -0.0963016 255 255 255 255 
-0.0362943 0.166151 -0.250338 -0.0157429 0.15747 0.987398 255 255 255 255 
-0.0352936 -0.208512 -0.208497 -0.670215 -0.732481 0.119513 255 255 255 255 
0.0986561 0.151057 -0.063395 0.842553 0.33572 -0.421185 255 255 255 255 
0.16537 0.175988 -0.332961 -0.00715291 0.00259836 -0.999971 255 255 255 255 
-0.0303583 0.0439113 -0.18217 -0.627241 0.636233 0.449195 255 255 255 255 
-0.0847447 0.160703 -0.32985 -0.012504 -0.000777933 -0.999922 255 255 255 255 
0.059316 0.146304 -0.331526 -0.0118359 -0.000163671 -0.99993 255 255 255 255 
0.0764822 0.0536106 0.212892 0.447848 0.872754 0.194251 255 255 255 255 
0.0860873 -0.257729 -0.260301 0.162985 -0.365967 0.916244 255 255 255 255 
-0.129202 -0.0137739 -0.329265 -0.0150982 -0.000892768 -0.999886 255 255 255 255 
0.011159 0.270602 -0.273113 0.0122386 0.202631 0.979179 255 255 255 255 
-0.035678 -0.00439986 0.0547709 -0.0290283 0.532714 0.845797 255 255 255 255 
0.119559 -0.0353051 0.0390138 0.633303 -0.769229 -0.0849433 255 255 255 255 
-0.115025 -0.0679542 0.292344 -0.854213 -0.287496 0.433205 255 255 255 255 
0.0554585 0.299544 -0.303679 0.027452 0.999504 -0.0154086 255 255 255 255 
0.0884843 0.244837 -0.271156 0.06018 0.144317 0.9877 255 255 255 255 
-0.0542287 0.0227009 -0.330076 -0.0123748 -0.000828489 -0.999923 255 255 255 255 
-0.0531013 0.00208094 0.277982 0.14245 0.989797 0.00306532 255 255 255 255 
-0.123022 0.0864034 -0.0174677 0.0597218 0.968802 0.240534 255 255 255 255 
-0.0407708 -0.00131162 0.225891 -0.356028 0.929507 -0.0962333 255 255 255 255 
0.181092 0.258755 -0.314076 0.721477 0.690181 -0.055875 255 255 255 255 
-0.0581781 0.147608 -0.236637 -0.0485638 0.128606 0.990506 255 255 255 255 
0.0838454 0.125084 -0.244942 0.43917 0.637481 0.633046 255 255 255 255 
-0.107202 -0.120869 0.085267 -0.111872 -0.149964 0.982342 255 255 255 255 
-0.0563749 -0.181847 -0.147635 -0.267657 -0.962557 0.0429429 255 255 255 255 
-0.159565 -0.0666471 -0.129594 -0.953572 0.300968 0.0109152 255 255 255 255 
0.0437145 0.227506 -0.0979396 0.383722 0.922921 0.0312185 255 255 255 255 
0.0747461 0.110438 -0.225535 0.419207 0.614509 0.668315 255 255 255 255 
-0.0748888 -0.0144462 -0.329813 -0.0126199 -0.000976147 -0.99992 255 255 255 255 
0.168708 0.109461 -0.246724 0.785239 -0.53208 -0.316688 255 255 255 255 
-0.106187 -0.211847 -0.263166 -0.137764 -0.101845 0.985215 255 255 255 255 
-0.153106 -0.0476062 -0.100572 -0.953614 0.300908 0.00870354 255 255 255 255 
-0.0673737 -0.211931 0.0472771 -0.15241 -0.891152 0.42734 255 255 255 255 
-0.101406 0.0632918 -0.329642 -0.013763 -0.000798571 -0.999905 255 255 255 255 
-0.135182 0.0734809 -0.0137858 -0.928064 0.286802 -0.237576 255 255 255 255 
0.0705909 -0.0963799 -0.16605 0.697709 -0.652784 0.295085 255 255 255 255 
-0.0854617 0.0359004 0.026264 -0.229816 0.439741 0.868223 255 255 255 255 
-0.143246 -0.0165703 -0.186038 -0.951924 0.306332 0.000933019 255 255 255 255 
0.202322 -0.0934679 -0.287623 0.999136 -0.0410842 0.0063352 255 255 255 255 
-0.0537473 -0.00434635 0.0558621 -0.045134 0.541458 0.839515 255 255 255 255 
-0.12781 -0.163493 -0.22143 -0.318741 -0.946289 0.0542399 255 255 255 255 
0.0676619 0.128334 0.0222468 -0.733979 0.2846 0.616666 255 255 255 255 
0.131614 -0.0337262 0.0792242 0.731321 -0.675939 -0.0909702 255 255 255 255 
0.0539888 0.0979964 0.0123461 -0.697069 0.361999 0.618912 255 255 255 255 
0.0352772 0.231194 -0.105259 0.368748 0.9265 0.0749859 255 255 255 255 
-0.0408322 -0.224674 0.0207562 -0.15066 -0.930908 0.332734 255 255 255 255 
0.134496 0.032493 -0.333489 0.00203489 -5.43921e-005 -0.999998 255 255 255 255 
-0.161537 -0.102041 0.0374418 -0.0780359 0.0286595 0.996539 255 255 255 255 
-0.127499 0.0774869 -0.329379 -0.0154811 -0.000773124 -0.99988 255 255 255 255 
0.00204012 -0.188664 0.048612 0.949875 -0.308793 -0.0488315 255 255 255 255 
0.115018 -0.0545192 -0.332196 -0.012299 -0.00087825 -0.999924 255 255 255 255 
-0.00501599 -0.0454043 0.109003 -0.91956 0.28361 -0.271984 255 255 255 255 
0.0900945 0.218054 -0.268698 0.0790052 0.122777 0.989285 255 255 255 255 
-0.0105558 0.0198237 0.201107 -0.992309 0.0419567 0.116461 255 255 255 255 
-0.0284013 -0.227792 0.0130316 -0.148306 -0.937502 0.314795 255 255 255 255 
0.183831 0.0314827 -0.109417 0.851499 -0.524053 0.0178198 255 255 255 255 
-0.00129048 0.0976117 -0.33077 -0.0121836 -0.000474198 -0.999926 255 255 255 255 
-0.00506269 -0.0458066 0.263004 -0.279971 -0.328405 0.90209 255 255 255 255 
-0.0374666 -0.0608764 -0.33021 -0.0126477 -0.00111676 -0.999919 255 255 255 255 
-0.0895346 -0.283178 -0.329269 -0.0122592 -0.000984608 -0.999924 255 255 255 255 
-0.0803452 0.038879 -0.22148 -0.930398 0.268349 0.249696 255 255 255 255 
-0.0545922 -0.0241635 0.0696548 0.0538131 0.62604 0.777932 255 255 255 255 
0.0516855 0.123687 0.0040922 -0.732788 0.289353 0.61587 255 255 255 255 
-0.0563877 -0.0474018 0.337481 0.174821 -0.592154 0.786633 255 255 255 255 
0.0301213 -0.0922215 -0.0229886 0.917236 -0.363588 -0.162734 255 255 255 255 
-0.0902087 0.202331 -0.269067 -0.0642595 0.100629 0.992847 255 255 255 255 
0.0216912 0.269276 -0.273185 0.0166159 0.205629 0.978489 255 255 255 255 
-0.10193 0.00449607 0.0631506 0.562552 -0.77956 0.275356 255 255 255 255 
-0.0160586 -0.000950516 0.247692 -0.609122 0.780267 0.141964 255 255 255 255 
-0.199093 -0.167671 0.0154108 -0.857878 0.444014 0.258645 255 255 255 255 
-0.180547 -0.133526 -0.146226 -0.957392 0.288463 0.0137919 255 255 255 255 
0.199588 -0.170033 -0.299102 0.999026 -0.043599 0.00681447 255 255 255 255 
-0.140865 -0.067509 0.0500088 -0.112714 0.0543469 0.99214 255 255 255 255 
-0.0144223 -0.0024064 0.220473 -0.989823 0.0681424 0.12493 255 255 255 255 
-0.117567 -0.231261 -0.329198 -0.016055 -0.00327285 -0.999866 255 255 255 255 
-0.147411 -0.0328924 -0.0784107 -0.956154 0.292855 -0.00233278 255 255 255 255 
-0.0332847 -0.0161541 -0.330304 -0.0124246 -0.00084857 -0.999922 255 255 255 255 
-0.165702 -0.155633 0.0697589 -0.781539 0.46114 0.420174 255 255 255 255 
0.180454 0.0164639 -0.162468 0.871981 -0.486951 0.0502674 255 255 255 255 
0.0529447 0.114246 0.00770536 -0.72456 0.3074 0.616862 255 255 255 255 
-0.188555 -0.0652041 -0.316051 -0.990411 0.136965 0.018071 255 255 255 255 
0.0331029 -0.0388053 -0.331111 -0.0127383 -0.000769847 -0.999919 255 255 255 255 
-0.139976 -0.00736459 -0.181463 -0.952076 0.305861 0.00101512 255 255 255 255 
-0.0344023 -0.208614 -0.0361583 0.47279 -0.277796 -0.836241 255 255 255 255 
-0.0134426 -0.147971 -0.330401 -0.0128183 -0.00130399 -0.999917 255 255 255 255 
-0.0173052 -0.1766 -0.0371604 0.473605 -0.278112 -0.835675 255 255 255 255 
0.15645 -0.217423 -0.332866 -0.00761028 -0.000866037 -0.999971 255 255 255 255 
0.0515427 -0.0739756 -0.042681 -0.374895 -0.875801 0.304018 255 255 255 255 
0.027896 0.0863724 -0.0142271 -0.637038 0.386866 0.666722 255 255 255 255 
0.198169 -0.0507081 -0.333226 -0.00751091 -0.00127951 -0.999971 255 255 255 255 
0.104773 0.101593 -0.152073 0.562261 0.824562 0.0629265 255 255 255 255 
0.0211793 0.0753312 -0.164183 -0.717093 0.606765 0.342949 255 255 255 255 
-0.161595 -0.0769748 -0.068002 -0.952796 0.303515 0.00763681 255 255 255 255 
0.198707 -0.15575 -0.284215 0.455358 -0.0596218 0.88831 255 255 255 255 
0.0662515 0.265019 -0.2733 0.0365797 0.191885 0.980735 255 255 255 255 
-0.0672459 0.199604 -0.265821 -0.0608716 0.119666 0.990946 255 255 255 255 
-0.126399 -0.162518 -0.183934 -0.3037 -0.951819 0.0425171 255 255 255 255 
-0.0232035 -0.00781017 0.314103 0.925729 -0.159879 0.342731 255 255 255 255 
0.0500843 0.0679958 0.172388 0.384662 0.910564 0.151354 255 255 255 255 
0.209521 0.0330962 -0.319813 0.998322 -0.0506395 0.0280719 255 255 255 255 
0.112178 -0.0438666 0.170138 0.798902 -0.343563 0.493681 255 255 255 255 
-0.0159781 0.00398261 -0.0944708 -0.769297 0.638827 -0.00908079 255 255 255 255 
0.139824 -0.242909 -0.332561 -0.0108088 -0.0008679 -0.999941 255 255 255 255 
0.0913787 0.196993 -0.119291 0.725316 0.575047 0.378468 255 255 255 255 
0.0189505 -0.153529 0.0585212 0.919303 -0.393336 -0.0130133 255 255 255 255 
0.190113 -0.0540795 -0.274947 0.596352 -0.0421746 0.801614 255 255 255 255 
-0.169442 -0.147699 -0.169938 -0.307545 -0.951161 0.0266213 255 255 255 255 
0.0228168 -0.243258 -0.225473 0.162916 -0.652419 0.74014 255 255 255 255 
-0.148783 -0.268962 -0.276533 -0.229357 -0.232391 0.945193 255 255 255 255 
-0.0935413 0.00968272 0.0571763 0.539463 -0.801683 0.257457 255 255 255 255 
-0.053099 -0.120887 -0.329933 -0.0126482 -0.00126457 -0.999919 255 255 255 255 
-0.165158 -0.0871506 -0.0859519 -0.952919 0.303062 0.00997494 255 255 255 255 
0.0291976 -0.276736 -0.330749 -0.0148037 -0.00286968 -0.999886 255 255 255 255 
0.138859 -0.0620913 -0.212715 0.822344 -0.562588 0.085119 255 255 255 255 
-0.00381296 -0.186294 0.0644506 -0.0379727 -0.625877 0.778997 255 255 255 255 
-0.121112 -0.166721 -0.329063 -0.013109 -0.00169602 -0.999913 255 255 255 255 
0.024137 -0.0606162 0.0753904 0.183578 0.140762 0.972875 255 255 255 255 
0.0512053 -0.263685 -0.331107 -0.0144753 -0.00218941 -0.999893 255 255 255 255 
-0.101495 -0.169841 -0.171394 -0.293482 -0.95489 0.0453235 255 255 255 255 
-0.15559 0.132309 -0.272631 -0.223663 0.0533888 0.973203 255 255 255 255 
-0.125932 -0.0616154 0.0582351 -0.138014 0.0938607 0.985973 255 255 255 255 
-0.0796962 0.25834 -0.329957 -0.0130048 -0.00150158 -0.999914 255 255 255 255 
0.106285 0.058138 -0.332399 -0.00940539 -0.000139391 -0.999956 255 255 255 255 
0.165434 -0.0185156 -0.226569 0.870577 -0.488057 0.0624236 255 255 255 255 
-0.160109 0.082243 -0.271714 -0.215471 0.0247345 0.976197 255 255 255 255 
0.176967 -0.0514818 -0.26529 0.58778 -0.0497285 0.807491 255 255 255 255 
-0.149298 0.00149067 -0.329105 -0.0190225 -0.000547235 -0.999819 255 255 255 255 
-0.0021856 -0.183303 -0.0110657 0.925413 -0.372459 -0.0698962 255 255 255 255 
-0.0352239 -0.0103073 0.0580315 0.0137462 0.56439 0.825394 255 255 255 255 
0.153247 -0.269514 -0.280592 0.215998 -0.236014 0.94744 255 255 255 255 
0.214037 0.186173 -0.297318 0.997548 -0.0298424 0.063312 255 255 255 255 
-0.145745 -0.108341 0.0611362 -0.114609 0.0540674 0.991938 255 255 255 255 
0.0311907 -0.131443 0.0435716 0.923747 -0.36399 -0.119178 255 255 255 255 
0.151549 -0.0403007 -0.220104 0.851099 -0.519948 0.0726922 255 255 255 255 
0.100925 -0.262108 -0.266171 0.175357 -0.296498 0.938796 255 255 255 255 
-0.136729 -0.000893408 -0.0357176 -0.962861 0.239125 -0.125373 255 255 255 255 
-0.0045658 0.0255921 -0.330683 -0.0124016 -0.000659212 -0.999923 255 255 255 255 
-0.0435729 0.0164635 0.0526486 -0.0751433 0.544472 0.835407 255 255 255 255 
-0.0593657 0.00196032 -0.330001 -0.0124334 -0.00088921 -0.999922 255 255 255 255 
0.181364 -0.12834 -0.273584 0.483696 -0.0627948 0.872981 255 255 255 255 
-0.186643 -0.180881 -0.0570384 -0.276062 -0.553055 -0.786079 255 255 255 255 
-0.0147015 0.225202 -0.330745 -0.0117635 -0.000326743 -0.999931 255 255 255 255 
-0.0109672 -0.189273 -0.141785 0.908403 -0.41285 0.0660291 255 255 255 255 
-0.129391 0.0330988 -0.264856 -0.194835 0.0160167 0.980705 255 255 255 255 
-0.17345 -0.147974 -0.0181718 -0.431836 -0.899549 -0.0657992 255 255 255 255 
0.035787 -0.0957096 0.00684275 0.905211 -0.365281 -0.217171 255 255 255 255 
-0.0502023 0.0445152 0.0356339 -0.101235 0.596947 0.795868 255 255 255 255 
0.0349329 -0.067014 0.24904 0.51627 -0.304466 0.800479 255 255 255 255 
-0.0909363 -0.174429 -0.329405 -0.0127162 -0.00154373 -0.999918 255 255 255 255 
0.0888613 -0.134509 -0.331756 -0.0130257 -0.000706259 -0.999915 255 255 255 255 
-0.143734 0.221114 -0.329087 -0.0128969 -0.00109802 -0.999916 255 255 255 255 
0.0969717 0.287502 -0.278331 0.0609318 0.20164 0.977563 255 255 255 255 
-0.14311 -0.159829 -0.247797 -0.324411 -0.944288 0.0554771 255 255 255 255 
0.0606263 0.112495 -0.130359 -0.850828 0.516579 -0.0961141 255 255 255 255 
0.170657 0.233943 -0.332922 -0.00043142 0.00758338 -0.999971 255 255 255 255 
-0.0268502 0.0924693 -0.211036 0.00378111 0.157885 0.98745 255 255 255 255 
-0.0773302 -0.155225 -0.329587 -0.0126211 -0.00142553 -0.999919 255 255 255 255 
-0.185905 0.0906252 -0.29227 -0.998447 0.0376079 0.041095 255 255 255 255 
-0.12052 -0.208815 -0.329201 -0.015757 -0.00296341 -0.999871 255 255 255 255 
0.17092 0.186912 -0.333008 -0.00599576 0.00385706 -0.999975 255 255 255 255 
-0.137654 -0.15904 -0.189125 -0.306819 -0.950894 0.0407779 255 255 255 255 
-0.177286 -0.147263 -0.225555 -0.314283 -0.948355 0.0429928 255 255 255 255 
-0.190523 0.00172482 -0.293057 -0.975223 0.0430697 0.216991 255 255 255 255 
-0.108048 -0.0183402 -0.329453 -0.0134152 -0.000981224 -0.99991 255 255 255 255 
0.0497351 0.0404708 0.0646144 -0.828297 0.502269 -0.248293 255 255 255 255 
-0.143145 -0.117906 0.0705358 -0.800655 0.507649 0.31819 255 255 255 255 
0.0447279 -0.0725364 -0.07604 -0.402832 -0.9026 0.151788 255 255 255 255 
0.177952 0.0384186 -0.0474084 0.888559 -0.458483 -0.0159916 255 255 255 255 
0.18093 -0.233843 -0.333075 -0.00295688 -0.0013868 -0.999995 255 255 255 255 
-0.123699 -0.163799 -0.195941 -0.307685 -0.950303 0.0474697 255 255 255 255 
0.116993 -0.0348402 0.00825467 0.625148 -0.780476 -0.00692274 255 255 255 255 
0.136418 0.131195 -0.332916 -0.00560994 0.000800224 -0.999984 255 255 255 255 
-0.0446738 -0.0642491 0.322259 0.184349 -0.5973 0.780543 255 255 255 255 
-0.132895 -0.159245 -0.154913 -0.300313 -0.953385 0.0294782 255 255 255 255 
-0.097261 -0.189968 0.0664132 -0.063617 -0.449153 0.891187 255 255 255 255 
0.137671 -0.0907925 -0.24791 0.491206 -0.115653 0.863331 255 255 255 255 
0.0281552 0.0658324 -0.104458 -0.785333 0.612785 -0.0880137 255 255 255 255 
0.08011 0.154669 -0.33179 -0.011646 0.000140291 -0.999932 255 255 255 255 
0.101401 -0.253619 -0.264037 0.178232 -0.28954 0.940426 255 255 255 255 
-0.175767 -0.152853 0.0482629 -0.788861 0.462019 0.405261 255 255 255 255 
0.0188966 0.0604321 -0.0845487 -0.753341 0.604539 -0.258861 255 255 255 255 
-0.00772583 -0.0323725 0.126523 -0.955007 0.192134 -0.225932 255 255 255 255 
-0.15835 -0.0670107 -0.0604699 -0.953563 0.301132 0.00614451 255 255 255 255 
0.069109 -0.0629488 0.217947 0.680619 -0.385254 0.623167 255 255 255 255 
-0.0812529 0.201696 -0.267971 -0.0651392 0.108969 0.991909 255 255 255 255 
-0.112329 0.30223 -0.316828 -0.502779 0.864368 0.00899348 255 255 255 255 
-0.12299 0.0458779 0.00489237 -0.34669 0.292864 0.891087 255 255 255 255 
0.0508352 -0.0719878 0.0441524 0.878735 -0.416922 -0.23238 255 255 255 255 
0.0400152 0.0692633 0.137889 0.276154 0.943039 0.185518 255 255 255 255 
-0.105052 0.00629677 -0.329514 -0.0133693 -0.000885136 -0.99991 255 255 255 255 
-0.0458108 -0.267497 -0.263737 -0.147341 -0.376991 0.914423 255 255 255 255 
0.117192 0.266214 -0.332384 -0.010699 0.00812619 -0.99991 255 255 255 255 
-0.0751364 0.14452 -0.245428 -0.12375 0.102348 0.987021 255 255 255 255 
0.0181264 -0.154045 0.0199013 0.927676 -0.353334 -0.120718 255 255 255 255 
0.114749 0.222557 -0.332302 -0.0103818 0.00270102 -0.999942 255 255 255 255 
0.0220353 -0.119097 -0.0155628 0.918565 -0.364274 -0.153435 255 255 255 255 
-0.0284826 -0.0023032 0.292782 0.166448 0.98605 -0.000220255 255 255 255 255 
-0.12436 -0.161076 -0.0919773 -0.308664 -0.951155 -0.00554654 255 255 255 255 
0.0114873 -0.0353527 0.268252 0.387763 -0.360279 0.848433 255 255 255 255 
-0.117682 0.00163463 -0.208166 -0.963258 0.267039 0.0287254 255 255 255 255 
-0.0276807 0.172301 -0.25528 -0.0059358 0.16384 0.986469 255 255 255 255 
-0.0673801 -0.072368 0.321128 0.15889 -0.607021 0.778639 255 255 255 255 
-0.0553851 -0.0789137 0.091716 0.0192942 0.116372 0.993018 255 255 255 255 
-0.14838 0.107006 -0.270917 -0.217284 0.0476361 0.974945 255 255 255 255 
-0.024899 0.0642722 -0.330462 -0.0123402 -0.000672289 -0.999924 255 255 255 255 
0.0774251 0.150708 0.0055494 0.281722 0.766979 0.57652 255 255 255 255 
-0.119415 0.296313 -0.300501 -0.569605 0.82169 0.0193689 255 255 255 255 
-0.0988068 0.0251674 -0.329603 -0.0132288 -0.000841897 -0.999912 255 255 255 255 
0.156929 0.026196 0.107871 0.826911 0.109183 0.551632 255 255 255 255 
0.117499 0.0330803 -0.332728 -0.00712371 -0.000324693 -0.999975 255 255 255 255 
0.0634103 0.197992 -0.265771 0.0886671 0.160079 0.983114 255 255 255 255 
-0.0527539 -0.296748 -0.293321 -0.0441647 -0.998981 0.00931844 255 255 255 255 
-0.0792732 0.192775 -0.266 -0.0703318 0.108418 0.991614 255 255 255 255 
0.0298299 0.0483618 0.111614 0.191205 -0.855574 -0.481076 255 255 255 255 
-0.176833 -0.121409 -0.216574 -0.954885 0.296593 0.0150951 255 255 255 255 
-0.142852 -0.154775 -0.120157 -0.308181 -0.951298 0.00754199 255 255 255 255 
0.0868417 -0.105458 -0.198237 0.622422 -0.731454 0.278506 255 255 255 255 
-0.14004 -0.006385 -0.117546 -0.952643 0.304052 0.00479754 255 255 255 255 
0.0725369 -0.302944 -0.313164 -0.0420072 -0.999006 0.0149008 255 255 255 255 
-0.0106505 -0.189794 -0.155648 0.90522 -0.413931 0.0961161 255 255 255 255 
-0.05725 0.047733 0.0368224 -0.0506376 0.680738 0.730775 255 255 255 255 
-0.181044 -0.134724 -0.155707 -0.95811 0.286064 0.0138965 255 255 255 255 
0.162037 0.182835 -0.270407 0.155199 0.152731 0.976005 255 255 255 255 
-0.00290179 0.0874275 -0.199153 0.0876393 0.328496 0.940431 255 255 255 255 
0.0811443 0.215062 -0.331964 -0.0110727 0.00247229 -0.999936 255 255 255 255 
0.173881 0.107052 -0.237966 0.995691 0.0154367 -0.091444 255 255 255 255 
-0.107479 -0.126649 0.0842208 -0.105883 -0.186411 0.97675 255 255 255 255 
0.00172863 -0.125561 -0.330624 -0.0128212 -0.00115645 -0.999917 255 255 255 255 
0.0931734 0.160257 -0.331962 -0.0114316 0.00041374 -0.999935 255 255 255 255 
0.186516 0.0184802 -0.232332 0.908413 -0.415334 0.0477939 255 255 255 255 
-0.101697 -0.173941 -0.251516 -0.337986 -0.93864 0.0687018 255 255 255 255 
0.143948 -0.0655692 -0.332563 -0.0116814 -0.00103408 -0.999931 255 255 255 255 
0.156643 -0.243036 -0.332828 -0.00825431 -0.00103605 -0.999965 255 255 255 255 
-0.0268466 0.154612 -0.246316 0.029252 0.993027 0.1142 255 255 255 255 
-0.102489 -0.245064 -0.329254 -0.0139018 -0.00213735 -0.999901 255 255 255 255 
-0.162681 -0.237535 -0.328806 -0.0323542 -0.00875496 -0.999438 255 255 255 255 
-0.0466196 -0.017166 -0.0957764 0.0910427 0.990017 -0.107595 255 255 255 255 
0.0533642 -0.169346 -0.331251 -0.0133125 -0.00110328 -0.999911 255 255 255 255 
0.130763 -0.0543577 -0.332424 -0.0117803 -0.00102054 -0.99993 255 255 255 255 
0.0396592 0.0932329 -0.00326655 -0.678713 0.375116 0.631377 255 255 255 255 
0.120154 0.0927217 -0.195982 0.499823 0.836301 0.225339 255 255 255 255 
0.193256 -0.079794 -0.278651 0.557754 -0.0421287 0.828936 255 255 255 255 
0.0811127 0.0646649 0.111141 0.260843 -0.800458 -0.539655 255 255 255 255 
-0.0836075 0.0104711 -0.194276 -0.711453 0.590927 0.380316 255 255 255 255 
-0.0849902 -0.290605 -0.329303 -0.0121774 -0.0010311 -0.999925 255 255 255 255 
-0.130568 0.0264303 -0.0486477 -0.965157 0.174269 -0.1952 255 255 255 255 
0.0838076 -0.103418 -0.183997 0.641071 -0.720871 0.263387 255 255 255 255 
0.0853393 -0.280211 -0.268423 0.142668 -0.365776 0.919703 255 255 255 255 
0.171206 0.00148353 -0.155542 0.861166 -0.505458 0.0538955 255 255 255 255 
0.120076 0.0773879 -0.333032 -0.00329687 0.000350439 -0.999995 255 255 255 255 
0.108631 0.133518 -0.258007 0.194978 0.222076 0.955335 255 255 255 255 
0.00699484 -0.0714629 0.124413 -0.435009 -0.829687 -0.349837 255 255 255 255 
-0.0239216 -0.0642108 0.294607 0.517116 -0.838862 0.170004 255 255 255 255 
-0.00337792 -0.0625576 0.114589 -0.451208 -0.8291 -0.330158 255 255 255 255 
-0.0464632 0.123672 -0.219799 -0.0022644 0.130275 0.991475 255 255 255 255 
0.110537 0.130307 0.0107822 0.289712 0.760787 0.580749 255 255 255 255 
0.0127936 -0.140289 -0.021993 0.921062 -0.375345 -0.103734 255 255 255 255 
-0.0828195 0.282031 -0.329966 -0.0134982 -0.00195756 -0.999907 255 255 255 255 
0.051942 0.255105 -0.332319 -0.0111558 0.0221885 -0.999692 255 255 255 255 
0.00102281 -0.163814 -0.109603 0.915269 -0.402396 0.0189583 255 255 255 255 
0.0959834 -0.0485852 -0.0150135 0.226836 -0.48286 0.845808 255 255 255 255 
-0.0381749 -0.0900934 0.168268 -0.609127 0.0556131 0.79112 255 255 255 255 
-0.0267402 -0.0746626 0.170419 -0.952834 0.155336 -0.260726 255 255 255 255 
-0.0455297 -0.0920118 0.172595 -0.782357 -0.23639 0.576228 255 255 255 255 
0.101929 0.24748 -0.271935 0.0704476 0.144038 0.987061 255 255 255 255 
0.173081 -0.0790699 -0.265878 0.537346 -0.0569247 0.841439 255 255 255 255 
0.00488317 0.0604427 0.0758258 0.192668 -0.901352 -0.38787 255 255 255 255 
-0.0685835 -0.184361 -0.237547 -0.417829 -0.903454 0.0958659 255 255 255 255 
0.0464397 0.211119 -0.331577 -0.0113251 0.0018813 -0.999934 255 255 255 255 
-0.118462 0.138407 -0.329511 -0.0141572 -0.000859207 -0.999899 255 255 255 255 
-0.035162 0.0693883 -0.330344 -0.0123483 -0.000713709 -0.999924 255 255 255 255 
0.146474 0.0729771 -0.193147 0.533804 0.832026 0.150946 255 255 255 255 
0.0246951 0.0612054 -0.134769 0.749819 0.601755 0.275068 255 255 255 255 
-0.0849398 0.309688 -0.293084 -0.0534498 0.991172 -0.121333 255 255 255 255 
-0.0263078 0.00201178 0.198998 -0.41857 0.902603 -0.100532 255 255 255 255 
-0.186335 0.00359648 -0.328369 -0.0269293 6.3197e-005 -0.999637 255 255 255 255 
0.104679 0.21754 -0.269387 0.0876074 0.116114 0.989365 255 255 255 255 
-0.00385675 0.0768266 0.138507 -0.875916 0.476201 0.0774882 255 255 255 255 
0.0102981 0.0476916 -0.0868038 -0.755271 0.61804 -0.218159 255 255 255 255 
0.138707 -0.0601507 -0.201698 0.82808 -0.554931 0.07959 255 255 255 255 
0.0424737 0.125288 -0.00747203 -0.73574 0.283539 0.615055 255 255 255 255 
0.0801777 0.130388 -0.250399 0.422143 0.58136 0.695569 255 255 255 255 
-0.0146031 0.188245 -0.262058 0.00130105 0.158453 0.987366 255 255 255 255 
-0.170711 -0.101282 -0.150246 -0.955676 0.294053 0.0147149 255 255 255 255 
-0.0282016 0.307322 -0.28661 0.0251359 0.989817 -0.140109 255 255 255 255 
-0.0564604 -0.223009 -0.0267179 -0.172851 -0.974188 0.145193 255 255 255 255 
0.0823841 0.185213 -0.0832532 0.745255 0.630158 0.217935 255 255 255 255 
-0.128412 -9.74111e-005 -0.329297 -0.0152314 -0.000790405 -0.999884 255 255 255 255 
-0.0316034 -0.290195 -0.273451 -0.132739 -0.448665 0.883787 255 255 255 255 
0.0695731 -0.302605 -0.299244 -0.0417479 -0.999007 0.015551 255 255 255 255 
-0.0661087 0.189686 -0.263239 -0.0626198 0.118317 0.990999 255 255 255 255 
-0.0611264 -0.0899741 0.246852 0.485185 -0.855258 -0.182018 255 255 255 255 
0.0123483 0.238356 -0.268517 0.0157986 0.159633 0.98705 255 255 255 255 
0.210075 0.106974 -0.303535 0.999647 -0.0228797 0.0135141 255 255 255 255 
-0.0039966 0.0710145 -0.203016 0.0203522 0.213333 0.976768 255 255 255 255 
0.107114 -0.283765 -0.273813 0.172203 -0.295339 0.939745 255 255 255 255 
0.01887 -0.0451342 -0.330926 -0.0127501 -0.000855574 -0.999918 255 255 255 255 
-0.00191552 0.173412 -0.258316 0.0211222 0.213466 0.976722 255 255 255 255 
0.179642 0.010636 -0.192106 0.887865 -0.457264 0.0510424 255 255 255 255 
0.101508 -0.098611 -0.146907 0.691428 -0.715655 0.0988235 255 255 255 255 
-0.0280193 -0.00115374 0.227026 -0.150449 0.982514 -0.109685 255 255 255 255 
-0.108944 -0.214327 -0.32927 -0.014499 -0.00248729 -0.999892 255 255 255 255 
0.0833969 0.169119 -0.168483 -0.578443 0.0751982 -0.812249 255 255 255 255 
0.0890507 0.184067 -0.331915 -0.0112985 0.000648845 -0.999936 255 255 255 255 
0.024946 -0.100352 -0.0636172 0.925555 -0.376167 -0.0429646 255 255 255 255 
0.0251442 -0.0608751 0.255162 0.41711 -0.344408 0.841072 255 255 255 255 
-0.0951165 -0.200619 -0.0681621 -0.0620103 -0.580371 -0.811988 255 255 255 255 
-0.154428 -0.055682 -0.239016 -0.950903 0.302767 0.0641484 255 255 255 255 
0.0150455 0.292572 -0.278398 0.0126249 0.239202 0.970888 255 255 255 255 
-0.119681 0.0325932 -0.0333806 -0.581767 -0.732503 0.353533 255 255 255 255 
-0.024345 0.228115 -0.330612 -0.0118912 -0.000704434 -0.999929 255 255 255 255 
0.0416722 -0.108482 0.221665 0.586972 -0.752348 0.299059 255 255 255 255 
0.162208 -0.0780275 -0.332749 -0.0118567 -0.000962204 -0.999929 255 255 255 255 
-0.0112796 0.00158774 0.152984 -0.98969 0.1177 -0.0816139 255 255 255 255 
-0.0246197 -0.0697213 0.165041 -0.953099 0.16457 -0.254006 255 255 255 255 
-0.0168251 -0.0117423 0.233024 -0.984067 0.0608544 0.167057 255 255 255 255 
0.144258 0.0423514 0.121742 0.816024 0.133886 0.562298 255 255 255 255 
-0.0418023 0.139971 -0.227017 -0.0038999 0.149045 0.988823 255 255 255 255 
-0.0944138 0.188782 -0.329729 -0.0123393 -0.000735192 -0.999924 255 255 255 255 
