ply
format ascii 1.0
comment VCGLIB generated
element vertex 633
property float x
property float y
property float z
property float nx
property float ny
property float nz
property uchar red
property uchar green
property uchar blue
property uchar alpha
element face 0
property list uchar int vertex_indices
end_header
0.136784 -0.0479119 0.229699 0.159224 -0.489912 0.857108 255 255 255 255 
0.163554 0.0475482 0.241519 0.926528 0.00113179 0.376225 255 255 255 255 
-0.0329342 0.185241 -0.33488 0.58204 -0.1464 -0.799872 255 255 255 255 
0.0308942 0.237228 -0.161801 -0.449249 0.614257 0.64874 255 255 255 255 
0.100356 0.0916898 0.284014 0.131721 0.199775 0.970948 255 255 255 255 
-0.0596251 0.150034 -0.282527 -0.185181 -0.887969 0.420974 255 255 255 255 
0.00467607 -0.172651 -0.103143 0.969881 -0.157541 0.185773 255 255 255 255 
0.162025 0.00983775 0.230021 0.910051 -0.173753 0.37632 255 255 255 255 
0.156433 0.064808 0.0420003 0.922012 0.336933 -0.190709 255 255 255 255 
0.0682334 0.149404 0.134503 0.00121148 0.981396 -0.191992 255 255 255 255 
0.0330686 -0.0748582 -0.0402622 -0.139447 -0.990029 -0.0199515 255 255 255 255 
0.0860183 0.137827 -0.196281 0.94479 0.230181 -0.233213 255 255 255 255 
-0.0590535 0.163356 -0.255025 -0.174457 -0.879634 0.442503 255 255 255 255 
0.0538416 -0.0787204 0.0162377 0.0560157 -0.99777 0.036285 255 255 255 255 
0.0335265 0.119088 -0.226127 0.305848 -0.412239 -0.858205 255 255 255 255 
0.00084559 0.273421 -0.277011 0.720129 0.619508 -0.312448 255 255 255 255 
-0.0318155 0.117916 0.172728 -0.750178 0.660015 -0.0401575 255 255 255 255 
0.0259204 0.128812 0.0956212 -0.282092 0.919793 -0.272772 255 255 255 255 
-0.00636929 -0.0118779 -0.172276 -0.0823495 -0.367878 -0.92622 255 255 255 255 
0.144131 0.0268107 -0.105671 0.99912 0.015216 -0.039073 255 255 255 255 
-0.0371377 -0.0329081 0.0510129 -0.816183 -0.576612 0.0369244 255 255 255 255 
-0.024133 0.155128 -0.282331 0.53602 -0.728768 -0.426121 255 255 255 255 
-0.0285239 -0.0219881 0.206271 -0.537684 -0.636378 -0.553099 255 255 255 255 
0.159204 0.0655875 0.0617228 0.934394 0.330976 -0.131765 255 255 255 255 
-0.0192046 0.0910256 -0.162736 -0.936554 0.259206 -0.235964 255 255 255 255 
0.15022 0.0156597 0.105304 0.959854 -0.280321 -0.0100263 255 255 255 255 
0.0641569 0.220463 -0.20378 0.921896 0.361489 -0.139401 255 255 255 255 
0.128735 0.0869108 -0.0959429 0.924292 0.380754 0.0266595 255 255 255 255 
0.0738937 0.184923 -0.153242 0.912732 0.400638 0.0800559 255 255 255 255 
0.0572729 0.0976687 -0.207893 0.252995 -0.349648 -0.902076 255 255 255 255 
0.10753 -0.0777549 -0.0723359 0.923659 -0.222952 0.311683 255 255 255 255 
0.137125 0.034241 -0.151372 0.955846 0.024216 -0.292868 255 255 255 255 
0.142947 0.0142412 -0.0973711 0.995086 -0.0911441 0.0386764 255 255 255 255 
0.124007 0.0954023 -0.0887303 0.893529 0.445072 0.0593002 255 255 255 255 
0.00971651 0.195545 -0.150735 -0.839898 0.286584 0.460913 255 255 255 255 
0.140752 -0.0150682 -0.107905 0.973871 -0.213679 0.0769253 255 255 255 255 
0.160484 0.0595749 0.0537248 0.956486 0.25518 -0.141485 255 255 255 255 
-0.0520113 0.0471584 0.210395 -0.989112 0.142595 0.0363984 255 255 255 255 
0.114134 -0.0906285 -0.0890565 0.959977 -0.170325 0.222335 255 255 255 255 
0.0994547 -0.00500467 -0.170944 0.334959 -0.379109 -0.8626 255 255 255 255 
0.13164 0.035989 -0.166157 0.946965 0.0357672 -0.319339 255 255 255 255 
-0.00406889 0.0832438 0.284508 -0.518192 0.370974 0.77062 255 255 255 255 
0.0625275 0.154201 0.184962 -0.0276566 0.997923 0.0581744 255 255 255 255 
-0.0202714 0.151302 -0.266075 0.44033 -0.68987 -0.574621 255 255 255 255 
0.144037 0.0319108 -0.113361 0.995037 0.0552895 -0.0827319 255 255 255 255 
0.131559 0.0482127 -0.165006 0.956215 0.114952 -0.269145 255 255 255 255 
-0.0409969 0.0645641 -0.0940061 -0.962803 0.230556 0.140903 255 255 255 255 
0.145435 0.0372117 0.269065 0.868352 -0.0552594 0.49286 255 255 255 255 
0.0723021 0.195448 -0.182497 0.940432 0.335783 -0.0532636 255 255 255 255 
0.080566 0.00036244 -0.178317 0.186554 -0.355468 -0.915882 255 255 255 255 
0.0939902 -0.090566 -0.0614579 0.332422 0.141569 0.932445 255 255 255 255 
-0.069495 0.22982 -0.34973 0.235201 0.0168709 -0.9718 255 255 255 255 
-0.0282006 0.0276571 0.275663 -0.594845 0.0741432 0.800414 255 255 255 255 
-0.00402567 -0.0527276 -0.0725707 -0.78031 -0.444466 0.439961 255 255 255 255 
0.0422157 0.13264 -0.0282819 -0.505648 0.780131 0.368395 255 255 255 255 
0.0708754 0.194734 -0.15803 0.918871 0.389822 0.060947 255 255 255 255 
0.166413 0.0652991 0.164854 0.988074 0.0901882 -0.124806 255 255 255 255 
0.081757 -0.0448468 -0.15445 0.104413 -0.745728 -0.658018 255 255 255 255 
0.0933237 0.141115 -0.137393 0.897252 0.440994 0.0215339 255 255 255 255 
0.116865 0.141523 0.127941 0.286666 0.932619 -0.21919 255 255 255 255 
-0.00375322 0.282224 -0.270004 0.709484 0.633997 -0.307701 255 255 255 255 
-0.0236257 -0.00538071 0.144303 -0.509789 -0.698686 0.501949 255 255 255 255 
0.00677516 0.217158 -0.166091 -0.777086 0.321061 0.541347 255 255 255 255 
0.0733144 0.138272 0.249284 0.0588852 0.863788 0.500402 255 255 255 255 
0.061899 -0.0410621 -0.16066 0.116679 -0.636678 -0.762251 255 255 255 255 
0.0203785 0.164992 -0.254968 0.515686 -0.396681 -0.759416 255 255 255 255 
0.159706 0.0397854 0.144016 0.986686 -0.073169 -0.145252 255 255 255 255 
-0.0421652 0.0992763 0.208567 -0.88251 0.459334 0.100935 255 255 255 255 
0.0963773 0.111623 -0.0387237 0.660423 0.735314 0.15217 255 255 255 255 
0.100584 0.146855 0.226586 0.197856 0.921252 0.334884 255 255 255 255 
-0.032031 0.0476515 -0.0347471 -0.975181 0.216759 -0.0451329 255 255 255 255 
0.012945 -0.0392175 0.126635 -0.277548 -0.819202 0.501872 255 255 255 255 
0.171154 0.0564161 0.218579 0.982693 0.0436105 0.180036 255 255 255 255 
0.142389 -0.00284946 0.102652 0.887106 -0.457569 0.0606114 255 255 255 255 
0.129827 0.0157077 -0.0489466 0.985746 -0.147079 -0.0816888 255 255 255 255 
0.0895471 0.111955 0.0037002 0.43462 0.898981 -0.0542192 255 255 255 255 
0.0319792 -0.0108501 0.179538 0.00803852 -0.985704 -0.168296 255 255 255 255 
0.10472 0.121645 0.0665275 0.264872 0.934872 -0.23634 255 255 255 255 
0.0835881 -0.0667583 -0.122552 -0.0621356 -0.666246 -0.743139 255 255 255 255 
-0.0292661 0.0983081 -0.110899 -0.903191 0.425588 0.0558662 255 255 255 255 
0.0700485 -0.0475531 -0.152462 0.0795854 -0.769138 -0.634108 255 255 255 255 
0.0875809 0.11791 0.0335582 0.195693 0.966299 -0.167244 255 255 255 255 
0.0819058 0.160741 -0.136575 0.888908 0.448173 0.0947822 255 255 255 255 
0.125601 -0.0189691 0.127828 0.796749 -0.60207 -0.0519924 255 255 255 255 
-0.118387 0.212894 -0.331148 -0.624739 0.6989 -0.348197 255 255 255 255 
0.170576 0.0312077 0.193411 0.995845 -0.0907819 -0.00712143 255 255 255 255 
0.134418 0.0569298 -0.148906 0.963323 0.182693 -0.196551 255 255 255 255 
0.167311 0.0405534 0.168821 0.992046 -0.0489888 -0.11595 255 255 255 255 
0.104666 0.124218 -0.130786 0.890121 0.455565 -0.0120453 255 255 255 255 
-0.0319288 -0.0260425 0.21502 -0.559243 -0.606728 -0.564915 255 255 255 255 
0.060828 -0.0528833 0.110961 0.0768438 -0.906094 0.416039 255 255 255 255 
0.0682103 0.147985 0.227427 -0.00092025 0.947547 0.319616 255 255 255 255 
0.0797678 0.143082 0.115228 0.0638638 0.965476 -0.252541 255 255 255 255 
0.00473992 0.229923 -0.176016 -0.636263 0.459955 0.619364 255 255 255 255 
-0.00913073 0.119072 -0.146731 -0.94104 0.33775 -0.0191777 255 255 255 255 
0.0707974 0.139837 0.106375 0.0104458 0.963589 -0.267183 255 255 255 255 
0.0317143 -0.077474 0.0437211 -0.0852207 -0.987983 0.128943 255 255 255 255 
-0.0384908 0.0331354 -0.0777966 -0.964038 0.0523867 0.26055 255 255 255 255 
0.135559 -0.0326734 0.0185501 0.785465 -0.603793 -0.135934 255 255 255 255 
-0.0280523 -0.00151374 0.277506 -0.657456 0.037856 0.752542 255 255 255 255 
0.123393 -0.0612234 -0.0969853 0.945394 -0.239116 0.22148 255 255 255 255 
-0.0321624 0.0860826 -0.0871813 -0.908531 0.390186 0.149419 255 255 255 255 
-0.0444637 0.0643196 0.0584059 -0.852655 0.517804 -0.0697058 255 255 255 255 
-0.0330768 0.0306246 0.143434 -0.66819 -0.494513 -0.55586 255 255 255 255 
0.12154 -0.0410892 0.00407897 0.728779 -0.664938 -0.163518 255 255 255 255 
0.138373 -0.0334625 0.0545883 0.745925 -0.663267 0.060608 255 255 255 255 
0.00932626 0.243653 -0.289896 0.724783 -0.10032 -0.681635 255 255 255 255 
0.0247202 -0.0463643 0.121211 -0.180342 -0.856315 0.483943 255 255 255 255 
-0.0230653 -0.0210367 -0.0203484 -0.857429 -0.455068 -0.240267 255 255 255 255 
0.171064 0.0650211 0.216707 0.98175 0.092553 0.166134 255 255 255 255 
0.0628992 0.167518 -0.0898078 0.769174 0.589074 0.247716 255 255 255 255 
-0.0392047 0.0362829 0.153001 -0.997451 0.0534414 -0.0472848 255 255 255 255 
0.0775966 0.149232 0.224199 0.0490583 0.953494 0.297393 255 255 255 255 
0.168633 0.0500817 0.172586 0.994941 0.00491867 -0.10034 255 255 255 255 
0.0712769 -0.0405405 -0.160302 0.132072 -0.659651 -0.739877 255 255 255 255 
0.0127473 -0.0104524 -0.174187 -0.0363294 -0.373959 -0.926733 255 255 255 255 
0.0152425 -0.0481773 0.11578 -0.258293 -0.848481 0.461915 255 255 255 255 
-0.0460837 -0.00984239 0.252067 -0.921557 0.00100538 0.388241 255 255 255 255 
-0.0371838 0.0545428 -0.0777905 -0.964003 0.175853 0.199436 255 255 255 255 
0.0161404 0.157423 -0.107034 -0.795869 0.516632 0.315727 255 255 255 255 
0.111948 0.11547 -0.109794 0.860145 0.508346 0.0416444 255 255 255 255 
0.0716361 -0.0126823 -0.174675 0.167776 -0.405166 -0.898717 255 255 255 255 
-0.0310419 0.0731104 -0.0699286 -0.931393 0.318726 0.175843 255 255 255 255 
0.106765 0.122219 -0.118525 0.866735 0.497929 0.0289415 255 255 255 255 
0.112449 0.0647311 -0.185752 0.206749 -0.205821 -0.9565 255 255 255 255 
0.104798 -0.0537973 -0.137272 0.0999049 -0.619637 -0.778504 255 255 255 255 
0.0164483 0.23549 -0.169799 -0.543727 0.547251 0.6363 255 255 255 255 
-0.0171337 0.149852 -0.242429 -0.610749 -0.239132 0.754852 255 255 255 255 
0.00807293 0.157299 -0.255502 0.467506 -0.534838 -0.703837 255 255 255 255 
0.0982221 0.129973 0.0866043 0.211749 0.939457 -0.269413 255 255 255 255 
0.0405544 0.150047 -0.238605 0.463755 -0.357349 -0.810699 255 255 255 255 
-0.0195158 -0.0371618 0.101838 -0.581433 -0.735629 0.347541 255 255 255 255 
-0.0449465 0.194813 -0.246604 -0.571247 -0.082538 0.816618 255 255 255 255 
0.11443 0.14883 0.159844 0.264071 0.962935 -0.0549759 255 255 255 255 
-0.0506006 0.00365666 0.0357011 -0.972716 -0.205465 -0.10774 255 255 255 255 
0.0950169 0.124323 0.0672337 0.201222 0.950223 -0.237878 255 255 255 255 
0.0671884 0.135906 0.0959674 -0.00707253 0.962489 -0.271228 255 255 255 255 
0.0222869 -0.0351333 0.134332 -0.201464 -0.827421 0.524201 255 255 255 255 
0.0462751 0.251547 -0.175862 0.783369 0.612667 0.104746 255 255 255 255 
-0.0234079 0.180219 -0.241242 -0.824991 -0.209273 0.524971 255 255 255 255 
-0.0449805 0.276734 -0.328063 -0.544705 0.741267 -0.392198 255 255 255 255 
0.0799628 0.1239 0.267447 0.124663 0.741903 0.658817 255 255 255 255 
0.035613 0.211821 -0.134542 -0.171283 0.719311 0.673241 255 255 255 255 
0.134 0.00270461 0.262119 -0.0862587 -0.501931 0.860595 255 255 255 255 
0.0113862 0.0803932 0.294784 -0.447775 0.383397 0.807778 255 255 255 255 
-0.0439027 0.0593779 0.0920668 -0.963738 0.258764 0.0651994 255 255 255 255 
0.0873787 0.152735 0.15677 0.0998825 0.992206 -0.0745022 255 255 255 255 
0.00582686 0.256548 -0.293506 0.745254 0.585637 -0.318788 255 255 255 255 
-0.000156449 0.141955 0.158675 -0.439226 0.893592 -0.0925914 255 255 255 255 
0.10989 -0.0376891 0.200049 -0.947649 -0.2847 -0.144592 255 255 255 255 
-0.0125952 0.169671 -0.292191 0.715898 -0.371963 -0.590875 255 255 255 255 
-0.119647 0.175078 -0.354554 0.126612 0.193047 -0.972986 255 255 255 255 
0.133276 -0.06242 0.180147 0.633702 -0.434104 -0.640293 255 255 255 255 
-0.0125278 -0.128829 -0.138986 -0.892443 0.0609235 -0.447027 255 255 255 255 
-0.00326015 0.0969899 0.0230116 -0.590846 0.802643 -0.0816405 255 255 255 255 
-0.0694111 0.159858 -0.26733 -0.207302 -0.87438 0.438731 255 255 255 255 
0.0179472 0.0654543 0.29848 0.185941 0.0435269 0.981596 255 255 255 255 
-0.00757597 0.145157 -0.243319 -0.966346 -0.257052 0.0100086 255 255 255 255 
-0.0448634 0.0544512 -0.146972 -0.958935 0.178341 -0.220541 255 255 255 255 
-0.0292085 0.0776081 0.0301789 -0.749354 0.653407 -0.107367 255 255 255 255 
0.119857 -0.203708 0.265053 -0.925576 0.122839 0.358079 255 255 255 255 
-0.0397274 0.0327773 0.122678 -0.989168 0.0279052 0.144108 255 255 255 255 
0.0218783 -0.0700266 -0.0425231 -0.435891 -0.899405 -0.0327154 255 255 255 255 
0.171653 0.0654166 0.209698 0.989827 0.091742 0.108745 255 255 255 255 
-0.00504901 -0.0717039 0.314499 0.298526 0.614375 0.73036 255 255 255 255 
-0.046353 0.0581474 -0.133559 -0.97478 0.206177 -0.0854152 255 255 255 255 
-0.102534 0.145427 -0.309122 0.245143 -0.927796 -0.281247 255 255 255 255 
0.0199356 0.117684 0.0671073 -0.366834 0.907815 -0.203235 255 255 255 255 
0.0012504 0.0474813 0.294597 -0.490796 0.156656 0.857075 255 255 255 255 
0.0626503 0.128827 0.075207 -0.0306936 0.968524 -0.247019 255 255 255 255 
0.168869 0.0355799 0.177131 0.993099 -0.0776373 -0.0879054 255 255 255 255 
0.0812125 -0.0677259 -0.0283374 0.529996 -0.846061 -0.057317 255 255 255 255 
0.0477039 0.118889 -0.22149 0.333589 -0.376309 -0.864355 255 255 255 255 
-0.0181103 -0.0797665 -0.133219 -0.0424958 -0.295086 -0.954525 255 255 255 255 
-0.0491285 -0.00154561 0.200588 -0.559814 -0.642003 -0.523871 255 255 255 255 
0.07271 -0.0309775 0.138746 0.0126462 -0.886041 0.463434 255 255 255 255 
0.0189704 0.142953 -0.242716 0.372529 -0.487532 -0.789642 255 255 255 255 
0.136258 -0.0191529 -0.0960637 0.956257 -0.238926 0.168783 255 255 255 255 
-0.0472971 -0.0121286 -0.131252 -0.900172 -0.172584 -0.399882 255 255 255 255 
-0.0455098 0.0626147 0.248458 -0.928959 0.263646 0.259856 255 255 255 255 
0.131541 -0.0390977 0.0611288 0.687986 -0.718061 0.10518 255 255 255 255 
0.0403183 0.0255196 0.285562 0.267012 -0.197909 0.943153 255 255 255 255 
0.165019 0.000975417 0.206011 0.975611 -0.212992 0.0530822 255 255 255 255 
0.0306385 0.140232 -0.238151 0.403723 -0.411004 -0.817364 255 255 255 255 
0.0645231 0.0164597 -0.183617 0.0739712 -0.307866 -0.94855 255 255 255 255 
0.138984 0.0695903 0.00278276 0.859001 0.460896 -0.222916 255 255 255 255 
-0.0588239 0.152689 -0.300741 0.210846 -0.947946 -0.238626 255 255 255 255 
-0.00575865 -0.0209652 -0.168645 -0.0847111 -0.405355 -0.910226 255 255 255 255 
0.129927 0.0850492 -0.104788 0.933545 0.358449 -0.00285739 255 255 255 255 
0.0748547 0.186308 -0.16711 0.930556 0.365687 0.0183967 255 255 255 255 
0.136043 0.0250066 -0.0262646 0.9691 -0.110041 -0.220763 255 255 255 255 
0.0926538 0.0612122 -0.189072 0.182308 -0.218783 -0.958592 255 255 255 255 
0.108131 0.0714704 -0.187402 0.207976 -0.211027 -0.955099 255 255 255 255 
0.154173 0.0601368 0.260051 0.89087 0.0734823 0.448275 255 255 255 255 
0.112916 -0.114331 -0.0794095 0.975741 -0.0686568 0.207883 255 255 255 255 
0.0624387 0.216284 -0.156771 0.904442 0.419329 0.0784046 255 255 255 255 
-0.0310496 -0.0150444 0.121725 -0.6029 -0.674257 0.426484 255 255 255 255 
-0.00660255 -0.0280953 0.129371 -0.41026 -0.766007 0.494895 255 255 255 255 
0.131129 -0.0213301 0.100136 0.776898 -0.610793 0.152844 255 255 255 255 
0.168231 0.0629213 0.171365 0.99207 0.0745443 -0.10119 255 255 255 255 
0.113832 0.11248 -0.11963 0.882393 0.470505 -0.00275524 255 255 255 255 
-0.0373322 -0.00258618 0.268636 -0.714401 0.0304777 0.699073 255 255 255 255 
0.117829 -0.0803286 -0.0933175 0.961359 -0.19953 0.189674 255 255 255 255 
0.0520809 -0.0357395 -0.164788 0.0975049 -0.560819 -0.822177 255 255 255 255 
0.0277145 -0.0291747 -0.167418 0.0230151 -0.492499 -0.870009 255 255 255 255 
0.0939804 0.119646 0.0478585 0.208769 0.957096 -0.200954 255 255 255 255 
-0.048802 0.0535376 0.242317 -0.955624 0.212008 0.204539 255 255 255 255 
0.157287 0.0795939 0.251057 0.880715 0.209369 0.424859 255 255 255 255 
0.11508 -0.0179484 -0.0488883 0.938205 -0.301337 0.170196 255 255 255 255 
0.0206963 0.000812037 0.259253 0.885441 -0.341221 -0.315534 255 255 255 255 
0.14591 0.0509642 0.273082 0.875777 0.0243513 0.482102 255 255 255 255 
0.0979357 -0.100186 -0.0610335 0.382472 0.180401 0.906185 255 255 255 255 
0.169164 0.0202063 0.195249 0.989946 -0.141314 -0.00608337 255 255 255 255 
0.136 0.084863 0.2788 0.582419 0.517394 0.62697 255 255 255 255 
0.0077773 -0.062794 0.300964 0.268615 0.628111 0.73029 255 255 255 255 
0.126921 0.0497023 0.281888 0.00529647 -0.246602 0.969102 255 255 255 255 
0.132815 0.0728671 0.285214 0.0301378 -0.16226 0.986288 255 255 255 255 
0.153875 0.0671486 0.260171 0.884038 0.119955 0.451761 255 255 255 255 
0.148459 0.0604194 0.270121 0.874927 0.0877853 0.476231 255 255 255 255 
0.105871 -0.0578821 0.0601429 0.499533 -0.853698 0.147198 255 255 255 255 
0.0107941 0.208324 -0.155681 -0.793101 0.326869 0.513952 255 255 255 255 
-0.0526768 0.00288705 0.0625087 -0.97821 -0.204871 0.0336698 255 255 255 255 
-0.0714678 0.180132 -0.255749 -0.514926 -0.0646401 0.854794 255 255 255 255 
0.151949 0.0333314 0.257797 0.878428 -0.0686253 0.472922 255 255 255 255 
-0.0426861 0.0558571 -0.0944184 -0.970602 0.181529 0.15805 255 255 255 255 
-0.0704324 0.154248 -0.311393 0.199964 -0.948782 -0.244598 255 255 255 255 
0.0926716 0.119823 -0.191202 0.940509 0.255561 -0.223899 255 255 255 255 
-0.0362971 0.024811 0.269505 -0.636227 0.0658463 0.768686 255 255 255 255 
-0.0231256 0.00441402 -0.056395 -0.937774 -0.287436 -0.194836 255 255 255 255 
-0.049191 0.161676 -0.254821 -0.157068 -0.880718 0.446839 255 255 255 255 
0.0665135 -0.0769703 0.0296662 0.214391 -0.974647 0.0640241 255 255 255 255 
0.0907616 -0.0629495 -0.0370472 0.875807 -0.354972 0.327043 255 255 255 255 
0.148325 0.0281838 0.261272 0.867241 -0.0904577 0.489602 255 255 255 255 
0.0890122 -0.0731478 -0.0437427 0.870048 -0.386055 0.306559 255 255 255 255 
-0.0523158 0.0194939 0.196831 -0.998169 0.0603031 -0.00460872 255 255 255 255 
0.0870735 0.121974 0.268339 0.174057 0.714164 0.677993 255 255 255 255 
-0.0496994 0.00255752 0.246185 -0.956737 0.0179707 0.290399 255 255 255 255 
0.0361509 0.13538 -0.0385252 -0.504953 0.768437 0.393099 255 255 255 255 
-0.00625545 -0.024576 -0.0506597 -0.807995 -0.410353 0.422794 255 255 255 255 
0.0267893 0.269199 -0.211583 0.188051 0.91829 0.348398 255 255 255 255 
-0.0247754 -0.242012 0.341799 -0.996824 -0.00882952 -0.0791474 255 255 255 255 
0.0391336 0.231161 -0.262113 0.65722 -0.193398 -0.728463 255 255 255 255 
0.139491 -0.165041 0.246058 0.505834 -0.364004 -0.78207 255 255 255 255 
-0.127802 0.204781 -0.33025 -0.633822 0.700875 -0.327177 255 255 255 255 
0.126272 -0.0600552 0.174347 0.626613 -0.464869 -0.625501 255 255 255 255 
-0.0441675 -0.00631989 -0.14119 -0.868599 -0.168505 -0.465985 255 255 255 255 
-0.0106567 0.194685 -0.19518 -0.927551 -0.0316078 0.372358 255 255 255 255 
0.047279 0.150304 0.21161 -0.104216 0.972602 0.207811 255 255 255 255 
-0.0254962 0.195221 -0.32955 0.660243 -0.120884 -0.74126 255 255 255 255 
0.00498349 -0.169597 0.321744 0.98542 -0.0208012 0.168862 255 255 255 255 
0.0355971 0.146663 0.135439 -0.185695 0.961058 -0.204657 255 255 255 255 
0.11176 0.00615889 0.261265 -0.117051 -0.518524 0.847013 255 255 255 255 
-0.0420351 0.0927628 0.224038 -0.891583 0.416804 0.177072 255 255 255 255 
0.0206907 -0.0762998 0.0154065 -0.228589 -0.973281 0.0216867 255 255 255 255 
0.0624429 -0.0543639 -0.143323 0.0601189 -0.812551 -0.579782 255 255 255 255 
0.0142376 0.136938 0.236704 -0.287652 0.884769 0.36666 255 255 255 255 
0.00966793 0.128457 0.10927 -0.419091 0.863525 -0.280513 255 255 255 255 
-0.0785005 0.250782 -0.266143 -0.521092 0.112069 0.846111 255 255 255 255 
-0.0415003 0.239699 -0.341733 0.396419 0.0689243 -0.915479 255 255 255 255 
-0.000384431 -0.0176797 0.195056 -0.0113801 -0.926839 -0.375287 255 255 255 255 
-0.0194095 0.0890619 -0.0556511 -0.842732 0.504742 0.187182 255 255 255 255 
0.0124641 -0.0703 0.0641036 -0.333036 -0.919611 0.208333 255 255 255 255 
0.151029 -0.009593 0.0318438 0.928305 -0.33158 -0.168237 255 255 255 255 
0.100427 -0.0553798 0.0810756 0.426053 -0.869347 0.250428 255 255 255 255 
0.149449 0.110215 0.133038 0.90042 0.358163 -0.246906 255 255 255 255 
0.0329438 0.270988 -0.219132 0.172574 0.920957 0.349366 255 255 255 255 
0.137186 -0.0672029 0.236325 0.732034 0.129119 0.668921 255 255 255 255 
0.0285687 0.272915 -0.231531 0.764156 0.592628 -0.254673 255 255 255 255 
0.0966043 -0.165308 -0.0633455 -0.980859 -0.177285 0.0805308 255 255 255 255 
-0.0346229 -0.00331257 -0.0113006 -0.91494 -0.316297 -0.250679 255 255 255 255 
0.0826829 0.143439 -0.203375 0.944703 0.220601 -0.242632 255 255 255 255 
0.0054281 0.167538 -0.14853 -0.928813 0.19877 0.312724 255 255 255 255 
0.0774129 0.149628 -0.215124 0.928781 0.162448 -0.333131 255 255 255 255 
0.166171 0.0923513 0.219381 0.941645 0.269274 0.20198 255 255 255 255 
0.0551415 -0.0140767 0.216366 -0.00171497 -0.999931 0.0115931 255 255 255 255 
0.133047 -0.253177 0.28052 0.432167 -0.458013 0.776824 255 255 255 255 
0.06868 -0.07543 0.0416279 0.219751 -0.969239 0.110842 255 255 255 255 
0.0071605 -0.181935 -0.128272 0.976948 -0.152868 0.149012 255 255 255 255 
0.090136 -0.0498256 -0.146818 0.0944919 -0.75655 -0.647073 255 255 255 255 
0.143818 0.0473691 -0.00640837 0.959406 0.124606 -0.253007 255 255 255 255 
0.0753788 0.0317367 -0.186938 0.106595 -0.26673 -0.957858 255 255 255 255 
0.0114843 -0.0613804 0.274259 0.944524 -0.105001 -0.311207 255 255 255 255 
-0.0295998 0.284193 -0.279661 -0.0122402 0.994348 0.105458 255 255 255 255 
0.145983 0.13089 0.152182 0.766743 0.619813 -0.167141 255 255 255 255 
0.00221979 -0.0682312 0.0487599 -0.521905 -0.8467 0.103513 255 255 255 255 
0.0703091 0.179263 -0.128489 0.860525 0.475433 0.182919 255 255 255 255 
-0.0473832 -0.0182757 0.24624 -0.932973 -0.00138709 0.359944 255 255 255 255 
-0.00487626 0.140828 0.180937 -0.482638 0.875457 0.025226 255 255 255 255 
0.154553 0.0647018 0.109332 0.99096 0.10823 -0.079275 255 255 255 255 
-0.0924985 0.177753 -0.349945 0.166004 0.00868387 -0.986087 255 255 255 255 
-0.00226279 0.118069 -0.198297 -0.960367 -0.18272 -0.210497 255 255 255 255 
-0.0032611 0.104806 0.0680283 -0.578145 0.799318 -0.163829 255 255 255 255 
0.126484 -0.104905 0.20509 -0.275438 -0.496742 -0.823032 255 255 255 255 
-0.0227918 -0.13784 -0.106892 -0.996165 0.0867984 0.0110586 255 255 255 255 
0.123424 -0.139719 -0.088694 0.968266 0.0525418 0.244337 255 255 255 255 
-0.0144366 0.0899382 0.0263621 -0.659383 0.745687 -0.0957395 255 255 255 255 
0.121909 -0.169102 0.265087 -0.954987 -0.013775 0.296328 255 255 255 255 
-0.0367994 0.00481486 0.269609 -0.714886 0.0343045 0.698399 255 255 255 255 
0.0409093 0.0860497 0.290838 0.172982 0.155979 0.972496 255 255 255 255 
0.10179 0.131161 0.0919318 0.224347 0.935312 -0.273604 255 255 255 255 
0.162838 0.099617 0.16773 0.956126 0.269803 -0.114148 255 255 255 255 
0.0037874 0.110823 0.272851 -0.373727 0.677991 0.632974 255 255 255 255 
0.0293936 -0.0215555 -0.170963 0.0165519 -0.440802 -0.897452 255 255 255 255 
0.153931 0.0060355 0.148537 0.907908 -0.338924 -0.246646 255 255 255 255 
0.0452315 -0.0529329 -0.145139 0.0687283 -0.807181 -0.58629 255 255 255 255 
-0.16217 0.14427 -0.333735 -0.481634 -0.519209 0.70601 255 255 255 255 
-0.0518318 -0.000602519 0.0555768 -0.974178 -0.225664 -0.00730085 255 255 255 255 
0.022894 0.109879 0.281 -0.162191 0.606912 0.778044 255 255 255 255 
0.136577 0.0552974 -0.140901 0.96875 0.178213 -0.172521 255 255 255 255 
-0.00849584 0.129727 0.22913 -0.471499 0.825321 0.310699 255 255 255 255 
0.0236397 -0.0615272 0.0966145 -0.180385 -0.906397 0.381976 255 255 255 255 
-0.0349739 0.00279721 0.131706 -0.948986 -0.162851 0.270008 255 255 255 255 
0.0153957 -0.115937 -0.111895 0.862138 -0.172058 0.476564 255 255 255 255 
0.0639147 -0.0770717 -0.00357124 0.103653 -0.994596 0.00582767 255 255 255 255 
-0.00525565 0.129594 0.23457 -0.43337 0.828971 0.353549 255 255 255 255 
0.0303413 0.204707 -0.262518 0.621064 -0.252309 -0.742037 255 255 255 255 
0.116796 -0.262415 0.277621 -0.300878 -0.3618 0.882368 255 255 255 255 
0.110238 0.119154 0.0633616 0.320279 0.918823 -0.23062 255 255 255 255 
-0.0142553 -0.144706 0.303093 -0.580337 -0.380248 -0.720154 255 255 255 255 
0.133148 0.00857389 0.265871 -0.0928926 -0.484163 0.870033 255 255 255 255 
0.073322 0.166621 -0.219476 0.930392 0.183165 -0.317524 255 255 255 255 
0.0800956 0.170542 -0.182504 0.948171 0.301418 -0.100595 255 255 255 255 
0.00166578 -0.164145 0.341236 0.985193 -0.020284 0.170244 255 255 255 255 
-0.0529235 0.0395044 0.0359244 -0.992012 0.0714135 -0.103978 255 255 255 255 
-0.0376957 0.014932 -0.0160641 -0.947739 -0.200744 -0.247978 255 255 255 255 
0.143234 -0.0152055 0.0136534 0.907029 -0.35676 -0.223654 255 255 255 255 
-0.00137255 0.194004 -0.171001 -0.89727 0.142194 0.417957 255 255 255 255 
0.0112734 -0.0731695 0.308237 0.398275 0.587749 0.704222 255 255 255 255 
0.0766818 -0.0701804 0.06028 0.270261 -0.944247 0.188035 255 255 255 255 
0.151043 0.0824991 0.0746875 0.878079 0.45638 -0.143853 255 255 255 255 
0.0113427 -0.0938069 0.324253 0.510743 0.48383 0.710669 255 255 255 255 
-0.0206016 -0.0308247 -0.013512 -0.834985 -0.503611 -0.221757 255 255 255 255 
-0.104753 0.195798 -0.348871 0.109833 0.133564 -0.984935 255 255 255 255 
0.133472 -0.275327 0.2345 0.0267964 0.538516 -0.842189 255 255 255 255 
0.10237 -0.0745839 -0.120197 -0.117468 -0.52523 -0.842813 255 255 255 255 
-0.0210565 0.281838 -0.304798 0.793477 0.52765 -0.303281 255 255 255 255 
-0.0209785 -0.00628554 -0.0459002 -0.890889 -0.38189 -0.245921 255 255 255 255 
0.111555 -0.032586 -0.0199768 0.86484 -0.49861 -0.0586415 255 255 255 255 
0.034416 -0.0669735 -0.117749 0.0541798 -0.931722 -0.359107 255 255 255 255 
0.0222113 -0.0234647 0.219315 0.1468 -0.929518 -0.3383 255 255 255 255 
-0.0106352 0.0974055 0.0548348 -0.611001 0.780523 -0.13214 255 255 255 255 
0.0516019 0.181545 -0.241674 0.584489 -0.250749 -0.771685 255 255 255 255 
0.0132452 -0.0741245 -0.104749 0.075969 -0.939979 -0.332667 255 255 255 255 
0.0245427 0.100448 0.287767 -0.149935 0.54831 0.822725 255 255 255 255 
0.0264391 0.1744 -0.109379 -0.752205 0.51366 0.412723 255 255 255 255 
-0.0291551 0.00188922 -0.0314198 -0.914617 -0.313228 -0.255663 255 255 255 255 
-0.0116451 0.119786 0.121698 -0.696311 0.671813 -0.252622 255 255 255 255 
0.122675 -0.0539259 0.244858 -0.33167 0.303701 0.893175 255 255 255 255 
-0.0048572 0.212618 -0.182873 -0.882182 0.0934926 0.461534 255 255 255 255 
0.0680284 -0.0741891 -0.112473 -0.134463 -0.603674 -0.78581 255 255 255 255 
-0.0290891 0.164588 -0.318036 0.419077 -0.852597 -0.312174 255 255 255 255 
0.097468 -0.0164598 0.240411 -0.140919 -0.630484 0.763304 255 255 255 255 
0.0713822 0.107618 0.280386 0.113043 0.424353 0.898413 255 255 255 255 
0.0140547 0.199433 -0.146196 -0.820047 0.318849 0.475245 255 255 255 255 
0.136673 -0.0112185 -0.13889 0.889595 -0.214105 -0.403459 255 255 255 255 
0.143697 0.0343072 -0.00871129 0.965208 -0.00479159 -0.261439 255 255 255 255 
0.123546 0.072626 0.285013 0.0355462 -0.146146 0.988624 255 255 255 255 
0.105447 -0.213542 -0.0456769 -0.976022 -0.0474119 0.212445 255 255 255 255 
0.0858637 0.0473267 0.278626 0.103529 -0.202493 0.973796 255 255 255 255 
0.0120087 0.0945772 -0.203155 -0.786227 -0.149813 -0.599502 255 255 255 255 
0.0709569 0.158341 -0.0912743 0.766078 0.599444 0.231928 255 255 255 255 
-0.0648871 0.199109 -0.347865 0.232237 -0.0697288 -0.970157 255 255 255 255 
0.0721054 -0.00616393 0.238836 -0.0695432 -0.726794 0.683326 255 255 255 255 
0.151537 0.00519054 0.245876 0.861082 -0.178572 0.476077 255 255 255 255 
-0.0422298 0.259997 -0.244868 -0.622906 0.139791 0.769706 255 255 255 255 
-0.0522365 0.0473188 0.0432003 -0.934184 0.346314 -0.0858358 255 255 255 255 
-0.0365265 -0.00726573 -0.0802485 -0.875299 -0.183826 0.44728 255 255 255 255 
0.117503 -0.0914272 -0.0992662 0.974864 -0.160473 0.154562 255 255 255 255 
0.159344 0.0257229 0.0357758 0.979758 -0.0714415 -0.187002 255 255 255 255 
0.143297 0.000969226 0.000860323 0.933764 -0.246513 -0.259455 255 255 255 255 
0.0701157 0.153755 0.1579 0.0112151 0.997414 -0.0709862 255 255 255 255 
0.0392889 0.0856621 -0.206474 0.118991 -0.381429 -0.916708 255 255 255 255 
-0.0452575 -0.0258953 -0.127843 -0.907265 -0.20118 -0.369318 255 255 255 255 
0.101833 -0.0165753 0.160588 -0.120715 -0.954606 0.272314 255 255 255 255 
0.0353648 -0.0741654 -0.054458 -0.111584 -0.99343 -0.0253964 255 255 255 255 
0.112822 -0.0342025 0.174853 -0.942598 -0.290215 -0.16518 255 255 255 255 
0.11561 -0.11231 -0.0848385 0.979613 -0.0532553 0.193708 255 255 255 255 
0.105048 -0.0595729 0.0251731 0.571467 -0.81981 -0.0365646 255 255 255 255 
-0.0307692 0.114095 0.157957 -0.875555 0.451776 -0.171179 255 255 255 255 
0.0656273 0.216704 -0.185638 0.926508 0.37274 -0.0514573 255 255 255 255 
-0.0140015 0.128994 0.143157 -0.708495 0.67681 -0.199906 255 255 255 255 
0.0360408 0.192591 -0.254924 0.593622 -0.270259 -0.758006 255 255 255 255 
0.0114395 -0.0310415 -0.165429 -0.0242678 -0.476968 -0.878585 255 255 255 255 
0.142747 0.130085 0.219209 0.589886 0.740303 0.322468 255 255 255 255 
0.139034 0.0269667 -0.146296 0.956474 -0.00495504 -0.291776 255 255 255 255 
0.162819 0.021547 0.23413 0.910564 -0.131029 0.392051 255 255 255 255 
0.0853784 -0.117619 -0.0800155 -0.963481 -0.254437 0.083465 255 255 255 255 
0.0222756 -0.0200749 0.210826 0.0621449 -0.957153 -0.282835 255 255 255 255 
0.00424031 0.0525684 -0.189574 -0.27789 -0.206322 -0.938194 255 255 255 255 
0.00112066 -0.199438 -0.10893 0.97646 -0.142534 0.161897 255 255 255 255 
0.120394 -0.0239469 0.249116 0.686603 0.0187491 0.72679 255 255 255 255 
-0.00786151 -0.030049 0.216366 0.0700038 -0.850998 -0.520483 255 255 255 255 
0.15371 0.0771637 0.0841094 0.919698 0.37424 -0.118744 255 255 255 255 
-0.0412579 0.162851 -0.3244 0.258493 -0.929202 -0.26413 255 255 255 255 
-0.0851935 0.180293 -0.34912 0.18872 -0.0544802 -0.980519 255 255 255 255 
0.0483994 0.14934 0.138172 -0.109252 0.977066 -0.182774 255 255 255 255 
0.159077 0.118241 0.190764 0.884537 0.464282 0.0451273 255 255 255 255 
-0.105401 0.160395 -0.352987 0.174635 0.0472899 -0.983497 255 255 255 255 
-0.0116246 -0.262986 0.353181 -0.2241 -0.349067 0.909907 255 255 255 255 
-0.0338715 0.0782967 0.076622 -0.797293 0.596663 -0.0911924 255 255 255 255 
0.113756 0.0921295 -0.170371 0.930041 0.315324 -0.188666 255 255 255 255 
-0.00870258 -0.104907 -0.0891535 0.103023 -0.153577 0.982751 255 255 255 255 
0.0337283 0.094061 -0.211846 0.154086 -0.401494 -0.902807 255 255 255 255 
0.0130383 -0.0393345 0.273678 0.900456 -0.183949 -0.394134 255 255 255 255 
0.122513 0.0998704 -0.11184 0.901608 0.432516 -0.00564463 255 255 255 255 
0.144917 0.0129521 -0.106487 0.997003 -0.0743691 -0.0213094 255 255 255 255 
0.0226172 0.116938 0.0588415 -0.365974 0.912331 -0.183618 255 255 255 255 
0.0946982 0.027495 0.272022 -0.0493229 -0.437398 0.897914 255 255 255 255 
-0.0385938 0.282265 -0.259517 -0.0312514 0.990808 0.131616 255 255 255 255 
-0.0302099 0.0802434 0.0502109 -0.740645 0.663525 -0.105733 255 255 255 255 
0.0254446 0.126 -0.035408 -0.573241 0.742116 0.347361 255 255 255 255 
0.0483744 -0.0691908 0.0815295 0.0411346 -0.952454 0.301894 255 255 255 255 
-0.00436221 -0.044069 -0.0660843 -0.779804 -0.436626 0.448624 255 255 255 255 
0.0941487 -0.0662386 -0.122308 0.00895236 -0.875419 -0.483282 255 255 255 255 
0.138016 -0.0705722 0.217097 0.212462 -0.469354 0.857069 255 255 255 255 
-0.0431407 -0.0426773 -0.120202 -0.929184 -0.237461 -0.283248 255 255 255 255 
0.113468 0.00343277 -0.16929 0.387397 -0.348456 -0.853523 255 255 255 255 
0.120905 -0.0498401 0.037912 0.626089 -0.779618 0.014416 255 255 255 255 
0.00401497 0.142074 0.148249 -0.431878 0.888424 -0.155512 255 255 255 255 
0.109481 0.0387639 -0.182944 0.218941 -0.233877 -0.947294 255 255 255 255 
-0.000267355 0.18997 -0.286749 0.706031 -0.281697 -0.649744 255 255 255 255 
0.01975 -0.0467901 -0.153961 0.0569643 -0.6579 -0.750948 255 255 255 255 
0.00687924 -0.109228 0.287182 0.355662 -0.546797 -0.757969 255 255 255 255 
-0.0386716 0.0323771 -0.0183344 -0.975189 -0.0501201 -0.215627 255 255 255 255 
0.0133345 0.0481048 0.2993 0.210205 -0.0356995 0.977005 255 255 255 255 
0.0822094 -0.0705326 0.0488516 0.324737 -0.936756 0.130512 255 255 255 255 
0.031973 -0.00105496 -0.177932 0.00413449 -0.355444 -0.934688 255 255 255 255 
-0.0365252 0.0719627 0.263223 -0.722589 0.295834 0.624777 255 255 255 255 
-0.0505245 0.158665 -0.317016 0.23284 -0.938509 -0.254923 255 255 255 255 
0.00613791 -0.279479 0.334229 0.929245 0.143152 -0.340603 255 255 255 255 
0.00323061 0.169255 -0.154145 -0.929874 0.174328 0.323952 255 255 255 255 
-0.00160596 -0.116938 0.289059 0.3316 -0.537708 -0.775185 255 255 255 255 
0.0811515 0.168749 -0.164176 0.934923 0.354633 -0.0124213 255 255 255 255 
0.0658137 0.00406888 0.248392 -0.039401 -0.69408 0.718819 255 255 255 255 
0.15781 0.0309812 0.0290773 0.976445 -0.0430889 -0.211422 255 255 255 255 
0.070586 0.154214 0.164548 0.0131343 0.999139 -0.0393657 255 255 255 255 
-0.0377981 0.156638 -0.301384 0.293865 -0.917881 -0.266716 255 255 255 255 
-0.0377564 0.0268423 -0.162666 -0.780302 -0.0734213 -0.621078 255 255 255 255 
-0.0703286 0.252595 -0.334635 -0.559974 0.71168 -0.424194 255 255 255 255 
-0.007517 -0.262822 -0.129655 -0.206022 -0.616845 0.759643 255 255 255 255 
2.50337e-005 0.0368956 -0.185478 -0.180571 -0.238327 -0.954251 255 255 255 255 
0.119186 -0.256142 0.250671 -0.909825 0.204381 -0.361174 255 255 255 255 
0.0772239 0.115872 -0.00553142 0.427043 0.901118 0.0749708 255 255 255 255 
-0.116639 0.176722 -0.29063 -0.751851 0.0138362 0.659188 255 255 255 255 
-0.0512666 0.033462 0.24111 -0.97603 0.118069 0.182824 255 255 255 255 
0.00250915 0.14878 -0.148864 -0.955173 0.209788 0.208885 255 255 255 255 
-0.0122183 0.223136 -0.197491 -0.833418 0.1112 0.54134 255 255 255 255 
0.106615 -0.0394972 0.115424 0.464182 -0.827511 0.315848 255 255 255 255 
-0.0485468 -0.0249531 -0.117981 -0.935724 -0.189766 -0.297339 255 255 255 255 
-0.0281586 0.0867557 0.107935 -0.90204 0.418128 -0.107207 255 255 255 255 
0.0533771 0.131745 -0.0289122 0.353289 0.88244 0.310623 255 255 255 255 
-0.131987 0.20665 -0.318631 -0.627956 0.701433 -0.337139 255 255 255 255 
-0.12609 0.142281 -0.348026 0.359165 -0.845763 -0.394569 255 255 255 255 
0.0414368 0.0665934 -0.197223 0.0495689 -0.336412 -0.940409 255 255 255 255 
0.106097 -0.267326 -0.0437115 -0.999793 -7.10656e-005 0.0203516 255 255 255 255 
0.121356 -0.00577481 -0.0502738 0.958108 -0.272727 0.087459 255 255 255 255 
0.016562 -0.0217842 -0.170239 -0.0163493 -0.432556 -0.901459 255 255 255 255 
0.0231568 0.0517081 -0.191406 -0.0729418 -0.301527 -0.950664 255 255 255 255 
0.0141 0.167894 -0.126283 -0.864037 0.363259 0.348544 255 255 255 255 
0.015952 0.135678 -0.0612069 -0.616753 0.70049 0.359068 255 255 255 255 
0.0904342 -0.0274703 0.142211 0.0343551 -0.900683 0.433116 255 255 255 255 
-0.106796 0.219058 -0.279155 -0.712794 0.0660607 0.698256 255 255 255 255 
0.144302 -0.108121 0.238805 0.825338 0.129403 0.549612 255 255 255 255 
-0.00753785 -0.301809 0.327361 0.0176969 -0.999799 0.00941805 255 255 255 255 
0.136593 -0.117954 0.217052 0.57992 -0.42752 -0.693483 255 255 255 255 
-0.00214835 -0.0810355 0.321773 0.311275 0.601709 0.735564 255 255 255 255 
-0.0374419 0.0388839 0.137983 -0.997886 0.0649841 0.000197834 255 255 255 255 
-0.01772 -0.0420714 0.224901 0.145723 -0.758399 -0.635292 255 255 255 255 
0.0926314 0.0202146 -0.182692 0.196518 -0.28874 -0.937022 255 255 255 255 
0.0783866 0.173855 -0.153514 0.916931 0.394892 0.0574279 255 255 255 255 
0.0662088 0.198107 -0.224005 0.930589 0.278463 -0.237617 255 255 255 255 
0.00207018 0.209215 -0.291184 0.726732 -0.182639 -0.662196 255 255 255 255 
0.0992843 0.0400507 -0.185429 0.190797 -0.233219 -0.953523 255 255 255 255 
0.127564 0.1155 0.0851436 0.695112 0.679378 -0.235085 255 255 255 255 
-0.00894547 0.282063 -0.248151 -0.127934 0.932374 0.338099 255 255 255 255 
0.0183569 -0.0727312 -0.0795164 -0.0316306 -0.996057 -0.0828866 255 255 255 255 
-0.044053 0.0045766 0.106344 -0.95566 -0.174009 0.237562 255 255 255 255 
0.0573175 -0.0122684 0.203845 -0.0159047 -0.99934 -0.0326548 255 255 255 255 
0.0559681 0.139389 0.247274 -0.0492279 0.886056 0.460957 255 255 255 255 
-0.00663925 -0.0634459 0.240001 0.866688 -0.21332 -0.450939 255 255 255 255 
-0.020317 -0.076955 0.245835 0.381449 -0.611409 -0.693308 255 255 255 255 
-0.00767049 0.155465 -0.264441 0.497867 -0.558852 -0.663184 255 255 255 255 
-0.118367 0.226203 -0.306159 -0.621764 0.699541 -0.352208 255 255 255 255 
0.159641 0.0280731 0.147594 0.975923 -0.148063 -0.160159 255 255 255 255 
0.123923 0.0909717 -0.13856 0.928323 0.354099 -0.113271 255 255 255 255 
-0.0437712 0.0736085 0.244114 -0.912421 0.315827 0.260271 255 255 255 255 
-0.00499904 0.125832 -0.142192 -0.942193 0.32962 0.0602002 255 255 255 255 
0.0190266 -0.0134002 0.235133 0.202817 -0.768121 0.607335 255 255 255 255 
0.0311114 -0.040857 0.129435 -0.149988 -0.849392 0.506 255 255 255 255 
-0.0360757 0.256638 -0.238062 -0.649359 0.160226 0.743411 255 255 255 255 
0.0517368 -0.00803457 0.233751 0.049979 -0.769019 0.637269 255 255 255 255 
-0.0929439 0.189551 -0.349942 0.156585 0.0190307 -0.987481 255 255 255 255 
0.124683 0.0868305 -0.0695153 0.898447 0.432537 0.075533 255 255 255 255 
0.126967 0.00830393 -0.0458821 0.977081 -0.211326 -0.0255834 255 255 255 255 
0.108308 -0.0684241 -0.068855 0.919605 -0.22449 0.322382 255 255 255 255 
0.0686142 0.0875167 -0.200313 0.224094 -0.307147 -0.924901 255 255 255 255 
0.0329489 -0.0247576 0.147331 -0.137117 -0.837336 0.529213 255 255 255 255 
-0.0212185 -0.00862005 -0.169463 -0.723487 -0.216091 -0.655645 255 255 255 255 
0.0427021 0.0369395 -0.187608 -0.000159587 -0.294935 -0.955517 255 255 255 255 
0.102553 0.135353 0.102533 0.220309 0.936092 -0.274217 255 255 255 255 
-0.0347726 0.096005 0.15188 -0.936698 0.293808 -0.190457 255 255 255 255 
-0.0268694 0.109736 0.140481 -0.85812 0.467192 -0.212983 255 255 255 255 
0.00543773 0.124303 -0.22631 -0.827736 -0.378564 -0.414176 255 255 255 255 
0.105632 -0.270239 -0.0515951 -0.999726 0.0227051 -0.00571831 255 255 255 255 
-0.0320483 -0.040097 -0.091711 -0.827017 -0.320853 0.461623 255 255 255 255 
0.124117 0.0793683 -0.0229958 0.822419 0.560359 -0.0981047 255 255 255 255 
0.0486572 -0.0736023 -0.0787702 -0.0360453 -0.994856 -0.0946709 255 255 255 255 
-0.0187462 -0.230979 0.330445 0.562156 -0.252038 -0.787691 255 255 255 255 
0.120228 0.102365 -0.123468 0.905766 0.421664 -0.0422704 255 255 255 255 
0.0313827 -0.0520781 -0.146135 0.0854629 -0.797012 -0.597887 255 255 255 255 
0.00275081 0.100806 0.280306 -0.45045 0.527951 0.719974 255 255 255 255 
0.139089 -0.121776 0.251231 0.84275 0.126954 0.523121 255 255 255 255 
-0.103 0.156906 -0.297287 -0.311193 -0.789644 0.528792 255 255 255 255 
0.0226375 0.149555 0.195245 -0.247147 0.962553 0.111402 255 255 255 255 
0.0623032 -0.072618 -0.0918669 -0.0240013 -0.984897 -0.171471 255 255 255 255 
0.159311 0.0149788 0.0410261 0.974744 -0.161763 -0.15397 255 255 255 255 
-0.00696745 0.121284 -0.0820354 -0.783229 0.579149 0.226139 255 255 255 255 
0.133006 0.0665498 -0.0768265 0.964992 0.259611 0.0373101 255 255 255 255 
0.00998523 0.107768 0.0409735 -0.476319 0.869942 -0.127752 255 255 255 255 
-0.0442735 0.270409 -0.248922 -0.605864 0.154232 0.780475 255 255 255 255 
-0.0254438 0.0503864 -0.173731 -0.678306 0.0454046 -0.733376 255 255 255 255 
0.117416 -0.0224772 -0.0607881 0.934154 -0.282638 0.21788 255 255 255 255 
-0.000369113 0.0277177 0.294163 -0.500572 0.0854926 0.861463 255 255 255 255 
0.0842181 0.133916 -0.0642919 0.676462 0.694467 0.245183 255 255 255 255 
0.0749546 -0.072661 -0.0180642 0.391993 -0.91916 -0.0385658 255 255 255 255 
0.0501533 0.124837 0.0637339 -0.123068 0.967979 -0.218794 255 255 255 255 
0.135645 -0.0100668 0.132877 0.821413 -0.503081 -0.268681 255 255 255 255 
0.00562774 0.135956 -0.0827796 -0.736498 0.61613 0.279202 255 255 255 255 
0.163132 -0.000500515 0.182513 0.965066 -0.244246 -0.0948258 255 255 255 255 
0.0426403 0.257262 -0.227814 0.823117 0.517683 -0.233416 255 255 255 255 
0.00105777 -0.0406214 -0.0491389 -0.805381 -0.590547 -0.0511389 255 255 255 255 
0.129922 0.0620253 -0.160971 0.954616 0.2098 -0.211406 255 255 255 255 
0.166345 0.0551442 0.163083 0.991531 0.0263615 -0.127169 255 255 255 255 
-0.0508699 0.0322013 0.0231576 -0.988217 -0.00452198 -0.152992 255 255 255 255 
0.139047 0.0932936 0.0475847 0.748402 0.633023 -0.197931 255 255 255 255 
0.139622 -0.18598 0.2517 0.386542 -0.302287 -0.871325 255 255 255 255 
0.0282495 0.00678358 0.287613 0.270177 -0.13912 0.952707 255 255 255 255 
0.135093 0.106106 0.0838615 0.795691 0.570822 -0.202579 255 255 255 255 
0.0409848 0.128714 0.0834283 -0.182427 0.94929 -0.256064 255 255 255 255 
0.105515 -0.0930021 -0.0688564 0.942577 -0.18005 0.2813 255 255 255 255 
0.0545329 0.120149 0.0339777 -0.0660933 0.987119 -0.145697 255 255 255 255 
0.00503216 -0.06861 0.00419814 -0.566656 -0.82034 -0.0770919 255 255 255 255 
0.111654 -0.0819214 0.229089 -0.998852 0.00926641 -0.0469892 255 255 255 255 
-0.0853567 0.198496 -0.261079 -0.553101 -0.00643519 0.833089 255 255 255 255 
0.119778 0.104337 -0.102586 0.880201 0.473376 0.0340761 255 255 255 255 
-0.0150894 0.284028 -0.259995 -0.0983657 0.958827 0.26641 255 255 255 255 
-0.0306607 -0.0863351 0.274972 -0.95521 -0.277298 -0.103343 255 255 255 255 
0.0411245 0.135996 0.103754 -0.172895 0.945975 -0.274295 255 255 255 255 
0.0917808 0.1478 0.22719 0.134799 0.929342 0.343733 255 255 255 255 
0.102518 0.107394 0.00821548 0.488425 0.864609 -0.117867 255 255 255 255 
0.0823209 -0.0557372 0.0976288 0.25 -0.905801 0.342088 255 255 255 255 
0.0173659 -0.0726835 -0.0109421 -0.429293 -0.900875 -0.0642696 255 255 255 255 
0.145423 0.0804258 0.0352593 0.81598 0.537603 -0.212505 255 255 255 255 
0.155375 0.0593904 0.112279 0.994186 0.08056 -0.0714511 255 255 255 255 
-0.00309554 -0.00767076 0.16752 -0.0422907 -0.943828 -0.327719 255 255 255 255 
0.0657841 0.166176 -0.228831 0.564126 -0.250611 -0.786738 255 255 255 255 
-0.0148221 -0.132228 0.293736 0.325813 -0.505643 -0.798856 255 255 255 255 
0.118199 0.0880326 -0.0211404 0.779043 0.622008 -0.0787266 255 255 255 255 
0.00380771 0.233103 -0.29414 0.728676 -0.110412 -0.675899 255 255 255 255 
-0.0269389 0.073348 -0.0575053 -0.918064 0.365039 0.154609 255 255 255 255 
0.0141175 0.241153 -0.284917 0.716658 -0.11899 -0.687199 255 255 255 255 
0.125166 0.125288 0.246234 0.425762 0.743204 0.516116 255 255 255 255 
-0.0452634 0.0802902 0.180476 -0.970409 0.21491 -0.110092 255 255 255 255 
0.0789173 -0.0126574 0.203265 -0.0932135 -0.993568 0.0642971 255 255 255 255 
-0.00676362 0.256525 -0.206326 -0.627955 0.415407 0.65811 255 255 255 255 
0.147101 -0.0239541 0.168432 0.780918 -0.466539 -0.415341 255 255 255 255 
-0.0184215 0.282168 -0.254142 -0.12868 0.939475 0.317534 255 255 255 255 
0.0518688 0.13345 0.257543 -0.0606216 0.837212 0.543508 255 255 255 255 
-0.0148957 0.0845259 -0.171832 -0.756201 0.0959435 -0.647267 255 255 255 255 
0.158708 0.112848 0.165461 0.927199 0.35427 -0.121635 255 255 255 255 
0.121905 0.147844 0.183585 0.326427 0.943199 0.0618148 255 255 255 255 
-0.164536 0.160799 -0.352066 -0.987898 0.0564816 -0.144456 255 255 255 255 
-0.0324364 0.0246065 -0.0631228 -0.957615 -0.00412894 0.288021 255 255 255 255 
-0.0478164 0.0408106 -0.143764 -0.972719 0.101072 -0.20881 255 255 255 255 
-0.0492591 0.271552 -0.331259 -0.545114 0.735211 -0.402884 255 255 255 255 
0.0240292 0.102273 -0.217982 0.15061 -0.429264 -0.890533 255 255 255 255 
0.101276 0.142125 0.11878 0.191663 0.950176 -0.245826 255 255 255 255 
0.0251217 -0.074125 0.0621728 -0.166062 -0.963488 0.210033 255 255 255 255 
-0.0111548 0.025894 0.287718 -0.538271 0.0774133 0.839209 255 255 255 255 
0.107211 0.150887 0.198675 0.20463 0.969326 0.136141 255 255 255 255 
0.0524144 -0.0789116 0.027256 0.0525215 -0.996203 0.0694284 255 255 255 255 
-0.0579339 0.162884 -0.334513 0.223453 -0.939093 -0.2611 255 255 255 255 
-0.0348994 0.284342 -0.322089 0.048608 0.994216 0.0957728 255 255 255 255 
-0.0504122 0.0655816 0.207269 -0.976568 0.212266 0.0354768 255 255 255 255 
-0.00733297 0.140773 -0.207176 -0.985718 -0.168351 -0.00411546 255 255 255 255 
0.15251 -0.0387079 0.211396 0.969253 -0.233364 0.0780438 255 255 255 255 
0.00759989 0.140789 0.218591 -0.338343 0.904979 0.257947 255 255 255 255 
-0.01381 -0.113677 -0.134853 -0.926171 -0.0381568 -0.375167 255 255 255 255 
-0.0258084 0.0959023 -0.0831577 -0.87209 0.459356 0.168675 255 255 255 255 
0.104854 -0.0307213 0.223025 -0.940009 -0.322776 -0.110444 255 255 255 255 
-0.00455516 -0.10752 0.280572 0.337823 -0.562402 -0.754705 255 255 255 255 
0.135901 -0.0240361 0.2442 0.0260208 -0.519678 0.853966 255 255 255 255 
0.00458309 -0.222313 0.358154 0.985789 0.0325662 0.164799 255 255 255 255 
-0.0875328 0.156825 -0.333065 0.246829 -0.926156 -0.28515 255 255 255 255 
0.118407 -0.0257333 -0.149 0.487702 -0.409365 -0.771082 255 255 255 255 
-0.0420449 0.0887536 0.231248 -0.894 0.392576 0.215983 255 255 255 255 
-0.0532305 0.0453724 0.0651586 -0.990038 0.138826 0.023492 255 255 255 255 
0.0880682 -0.0967785 -0.10666 -0.193973 -0.424799 -0.884263 255 255 255 255 
0.0872207 0.11737 -0.0340787 0.582812 0.789764 0.191319 255 255 255 255 
-0.108171 0.148225 -0.333963 0.305322 -0.891274 -0.335275 255 255 255 255 
0.059876 0.210547 -0.236945 0.908809 0.303925 -0.285823 255 255 255 255 
0.040378 0.242863 -0.256954 0.815865 0.472595 -0.333194 255 255 255 255 
-0.0924737 0.227219 -0.346157 -0.596538 0.696834 -0.398203 255 255 255 255 
0.128663 0.0276194 0.275563 -0.0514587 -0.377552 0.924558 255 255 255 255 
0.0194709 0.122388 0.0841227 -0.346014 0.905288 -0.246429 255 255 255 255 
-0.00314678 0.275532 -0.225972 -0.124808 0.908679 0.398404 255 255 255 255 
0.153893 -0.0344521 0.19512 0.966118 -0.257423 -0.0187105 255 255 255 255 
0.00937517 0.282885 -0.242877 -0.0800945 0.933959 0.348289 255 255 255 255 
-0.0319878 0.263739 -0.235741 -0.654886 0.180966 0.733741 255 255 255 255 
-0.00494751 0.132171 -0.174957 -0.99747 0.0552897 0.0446847 255 255 255 255 
0.102246 -0.0146862 0.185515 -0.170565 -0.980082 0.10172 255 255 255 255 
0.0425604 0.0246932 -0.184599 0.00342493 -0.301147 -0.953571 255 255 255 255 
0.0510621 0.185773 -0.104756 -0.122329 0.761888 0.636053 255 255 255 255 
-0.0458011 -0.0168396 0.0409724 -0.925513 -0.373753 -0.0611038 255 255 255 255 
0.0957206 0.126733 0.0756385 0.197547 0.947198 -0.252569 255 255 255 255 
0.00409143 -0.00599884 0.160745 -0.0327446 -0.956033 -0.291426 255 255 255 255 
0.0438648 -0.00456504 -0.177572 0.0384382 -0.371344 -0.9277 255 255 255 255 
-0.050265 -0.00438087 0.0727328 -0.961523 -0.260931 0.0859532 255 255 255 255 
0.0471502 0.153391 0.161057 -0.102602 0.992526 -0.0660692 255 255 255 255 
-0.0188517 -0.0300456 0.115253 -0.540878 -0.731111 0.415845 255 255 255 255 
-0.0381917 0.0130381 0.126322 -0.964931 -0.105187 0.240508 255 255 255 255 
0.106471 0.123191 0.0723522 0.29349 0.923539 -0.246859 255 255 255 255 
0.0864811 0.153612 -0.171296 0.94269 0.32356 -0.0815151 255 255 255 255 
0.0523259 -0.0708754 -0.0996608 -0.00902087 -0.979065 -0.20335 255 255 255 255 
-0.0446542 0.0338712 0.00107318 -0.978651 -0.011107 -0.205227 255 255 255 255 
-0.000574838 0.166347 -0.164482 -0.953548 0.105469 0.282173 255 255 255 255 
0.160304 0.0564717 0.0473432 0.95108 0.261053 -0.165222 255 255 255 255 
-0.0453419 0.0369551 0.172179 -0.994156 0.0739931 -0.0786096 255 255 255 255 
0.117396 -0.0530284 -0.0788047 0.924563 -0.243305 0.293235 255 255 255 255 
0.137467 -0.0260903 0.0115076 0.857695 -0.473262 -0.200956 255 255 255 255 
-0.100865 0.229309 -0.330206 -0.606152 0.69806 -0.381173 255 255 255 255 
-0.0222628 -0.0346849 -0.00561619 -0.822105 -0.532627 -0.201126 255 255 255 255 
0.0317274 0.1084 0.283052 -0.0868621 0.57005 0.817005 255 255 255 255 
