ply
format ascii 1.0
comment VCGLIB generated
element vertex 633
property float x
property float y
property float z
property float nx
property float ny
property float nz
property uchar red
property uchar green
property uchar blue
property uchar alpha
element face 0
property list uchar int vertex_indices
end_header
0.211235 0.334366 0.00121318 0.231045 0.0145621 0.972834 255 255 255 255 
0.159679 0.179791 0.127787 0.528873 0.180316 0.829325 255 255 255 255 
0.150776 0.32353 -0.0780288 -0.05611 0.623182 -0.780062 255 255 255 255 
-0.1475 -0.104367 -0.141969 -0.115631 0.991476 -0.0600343 255 255 255 255 
0.226419 0.219009 -0.0568091 0.843342 -0.100359 -0.527922 255 255 255 255 
-0.056114 0.0231092 0.173363 -0.760598 0.00939628 0.649155 255 255 255 255 
-0.218801 -0.170424 -0.0766693 -0.908668 0.351944 0.224629 255 255 255 255 
-0.0703465 -0.124689 -0.167221 0.284878 0.859354 -0.424682 255 255 255 255 
0.202241 0.119098 -0.0806106 0.899962 -0.0257243 -0.435209 255 255 255 255 
0.0321288 -0.362966 0.0704893 0.840807 -0.2478 0.481289 255 255 255 255 
-0.114639 0.0291679 -0.135573 -0.352489 -0.584767 -0.730615 255 255 255 255 
0.0699904 -0.0058981 -0.15796 0.212686 -0.6322 -0.745042 255 255 255 255 
-0.116368 -0.00248754 -0.0434004 -0.681301 -0.725693 -0.0959058 255 255 255 255 
0.193513 0.376947 -0.0246111 -0.256488 0.900156 -0.35204 255 255 255 255 
-0.0284722 0.123733 -0.198459 -0.251199 0.0177209 -0.967773 255 255 255 255 
0.0160356 -0.371488 0.0965944 0.849381 -0.244678 0.467637 255 255 255 255 
0.0242301 -0.278589 -0.136832 0.854777 -0.100901 -0.509092 255 255 255 255 
0.0339882 0.132867 0.194923 0.379451 0.464829 0.799969 255 255 255 255 
0.100366 -0.0572196 0.0940826 0.4995 -0.751189 0.431526 255 255 255 255 
-0.0365834 0.128652 0.168126 -0.609414 0.190534 0.769617 255 255 255 255 
0.203326 0.150048 -0.0724364 0.891937 0.00573862 -0.452123 255 255 255 255 
-0.0939969 -0.239453 0.0480598 -0.173809 0.160733 0.971574 255 255 255 255 
-0.228615 -0.123846 -0.189754 -0.908106 -0.100879 -0.406406 255 255 255 255 
-0.231917 -0.138541 -0.16789 -0.964014 -0.132493 -0.230484 255 255 255 255 
-0.11695 0.179174 0.118429 -0.716637 0.25458 0.649323 255 255 255 255 
-0.151952 0.113168 0.0763057 -0.921793 -0.0390858 0.385707 255 255 255 255 
-0.132255 0.258747 -0.0428761 -0.063104 0.960859 -0.269754 255 255 255 255 
0.223716 0.101725 0.00563052 0.990312 -0.114611 -0.0784011 255 255 255 255 
0.111716 0.245396 0.133642 0.426438 0.600673 0.676271 255 255 255 255 
-0.184395 0.0588626 -0.133099 -0.893587 0.20764 -0.397981 255 255 255 255 
-0.0646888 -0.377004 -0.133895 -0.0195269 -0.992886 -0.117458 255 255 255 255 
-0.0260745 -0.156908 0.0896618 -0.751874 0.293166 0.590541 255 255 255 255 
-0.0636696 -0.118515 -0.0448006 0.0464189 0.992643 0.111822 255 255 255 255 
-0.150602 0.220476 -0.0103641 -0.828357 0.366603 0.423588 255 255 255 255 
0.0403357 0.199382 -0.188404 0.142226 0.373727 -0.916569 255 255 255 255 
0.106147 -0.344788 -0.0796337 0.418635 0.192584 -0.8875 255 255 255 255 
-0.156589 -0.0914125 -0.149044 0.947642 -0.156125 -0.278568 255 255 255 255 
0.022318 -0.194567 -0.127364 0.82113 0.349935 -0.450877 255 255 255 255 
-0.131415 -0.374464 -0.0633775 -0.104783 -0.994495 0.000562914 255 255 255 255 
-0.121707 -0.376094 -0.138432 -0.24825 -0.924553 -0.289093 255 255 255 255 
-0.0757405 -0.0263553 -0.0811035 -0.495653 -0.804913 -0.326257 255 255 255 255 
-0.199147 -0.114075 -0.119015 -0.784522 0.433033 0.443856 255 255 255 255 
0.0276264 0.19101 -0.193587 0.073139 0.332201 -0.940368 255 255 255 255 
0.104802 -0.311048 -0.0350446 0.90087 0.40664 -0.151912 255 255 255 255 
-0.076473 -0.373804 0.0356362 -0.0361194 -0.999102 -0.0221581 255 255 255 255 
-0.188086 -0.132086 -0.0489945 -0.574819 0.752333 0.321836 255 255 255 255 
-0.0809138 -0.0427269 0.041133 -0.623134 -0.781354 0.0345026 255 255 255 255 
0.0463604 -0.0556749 0.133045 0.133712 -0.795299 0.591288 255 255 255 255 
0.150094 -0.0272648 -0.0623763 0.651966 -0.67629 -0.342889 255 255 255 255 
-0.152268 -0.249453 0.0486753 -0.354659 0.100052 0.929627 255 255 255 255 
0.00474623 0.307667 0.0609749 -0.13669 0.932482 0.334355 255 255 255 255 
0.214316 0.301214 0.000218472 0.222481 0.0565237 0.973297 255 255 255 255 
-0.0501676 0.114132 0.157321 -0.608072 -0.00743794 0.793847 255 255 255 255 
-0.120806 0.19516 0.10465 -0.760976 0.365822 0.535808 255 255 255 255 
-0.0465971 -0.366404 -0.0181975 -0.0247841 -0.999614 0.0125535 255 255 255 255 
0.129388 0.307526 -0.0817436 -0.108812 0.698222 -0.707563 255 255 255 255 
0.099417 0.0948096 0.177067 0.499775 0.423045 0.755816 255 255 255 255 
-0.23508 -0.119206 -0.170283 -0.952807 -0.0829549 -0.292022 255 255 255 255 
0.00348653 -0.373891 -0.0718458 -0.0292382 -0.997185 0.0690514 255 255 255 255 
0.0278806 0.157012 0.183992 0.333378 0.401966 0.852809 255 255 255 255 
0.10674 -0.230465 0.0758911 0.706099 -0.563097 0.429355 255 255 255 255 
0.193964 0.363103 0.00574114 0.242006 -0.00181493 0.970273 255 255 255 255 
0.0974183 -0.301402 -0.0318047 0.960639 0.247733 -0.125705 255 255 255 255 
0.0246713 0.0543514 0.217629 -0.038744 -0.276123 0.960341 255 255 255 255 
-0.214131 -0.249115 -0.123148 -0.932298 -0.277442 -0.232048 255 255 255 255 
-0.178545 -0.256124 -0.180752 -0.662576 -0.360867 -0.65633 255 255 255 255 
0.177611 -0.0139495 0.0125008 0.775636 -0.631149 -0.00621191 255 255 255 255 
-0.167596 0.252654 -0.0814976 -0.0941398 0.75989 -0.643199 255 255 255 255 
0.0411061 0.310363 -0.0453944 -0.0627089 0.976617 -0.205636 255 255 255 255 
-0.0501793 -0.300147 0.0629174 -0.176284 0.460076 0.870203 255 255 255 255 
0.153288 0.195968 -0.127007 0.630096 0.232416 -0.740919 255 255 255 255 
-0.139897 -0.0207998 -0.159878 0.87663 -0.388876 -0.283365 255 255 255 255 
0.0442363 0.030304 0.209237 0.0226629 -0.424942 0.904937 255 255 255 255 
-0.0873152 -0.136246 -0.1924 0.252081 0.759202 -0.600056 255 255 255 255 
-0.129305 -0.177536 0.0329793 -0.242738 0.463499 0.852202 255 255 255 255 
0.129642 0.239719 0.125028 0.534282 0.571692 0.622665 255 255 255 255 
0.117855 0.128459 -0.178431 0.494418 0.0609944 -0.867082 255 255 255 255 
0.0414895 -0.227762 -0.0992218 0.783567 0.0970819 -0.613675 255 255 255 255 
-0.0669171 0.00855422 0.159634 -0.761969 -0.0849584 0.642017 255 255 255 255 
-0.204147 -0.229904 0.0120187 -0.822548 0.0408304 0.567228 255 255 255 255 
-0.00821065 -0.284749 -0.193145 0.543901 -0.326941 -0.77284 255 255 255 255 
0.123932 -0.225419 0.0137354 0.929481 -0.368128 -0.023382 255 255 255 255 
0.0798182 0.312587 -0.0292241 -0.17529 0.974024 -0.143352 255 255 255 255 
0.0595597 -0.0250121 -0.140532 0.158855 -0.731672 -0.662888 255 255 255 255 
-0.0544721 -0.00522066 0.165394 -0.468882 -0.605048 0.64348 255 255 255 255 
0.0276256 -0.231204 -0.136802 0.917227 0.15629 -0.366426 255 255 255 255 
0.115975 -0.0788192 0.0615765 0.720625 0.283916 0.632528 255 255 255 255 
-0.164821 -0.365252 -0.0513613 -0.815424 -0.574652 0.0697024 255 255 255 255 
0.0826084 0.0712415 0.206374 0.47155 0.275162 0.83781 255 255 255 255 
-0.155864 0.00451831 -0.0998594 -0.307559 -0.387056 0.86925 255 255 255 255 
-0.150809 0.0814713 0.0638635 -0.901207 -0.19495 0.387066 255 255 255 255 
-0.00851195 0.205542 -0.188173 -0.150417 0.377012 -0.913913 255 255 255 255 
0.0615898 0.134132 0.175832 0.445875 0.321908 0.835207 255 255 255 255 
-0.184909 -0.173751 0.0117368 -0.577893 0.451583 0.679789 255 255 255 255 
0.102633 -0.258215 -0.00915084 0.951433 -0.300525 -0.066776 255 255 255 255 
-0.0771383 0.194717 -0.160141 -0.44493 0.370911 -0.815145 255 255 255 255 
-0.125929 0.232098 0.0360776 -0.775351 0.517876 0.361436 255 255 255 255 
0.141675 0.268459 0.0495651 0.620133 0.696725 0.360568 255 255 255 255 
-0.19811 -0.305002 -0.0203904 -0.878282 -0.398109 0.264819 255 255 255 255 
0.00696037 -0.37473 -0.107288 0.000574356 -0.999999 -0.00108788 255 255 255 255 
-0.0571838 0.0615284 0.161597 -0.739439 0.0691787 0.66966 255 255 255 255 
-0.149766 0.136965 0.0840785 -0.919991 0.130178 0.369689 255 255 255 255 
-0.0169857 -0.129079 -0.0774903 0.188849 0.96399 -0.18724 255 255 255 255 
0.234445 0.21019 -0.0358178 0.915424 -0.133382 -0.379748 255 255 255 255 
-0.0644657 -0.117141 -0.137808 0.272046 0.927769 -0.255413 255 255 255 255 
0.204082 0.0241705 -0.00849428 0.904878 -0.419625 -0.071486 255 255 255 255 
-0.0412589 -0.31641 0.0748282 -0.160322 0.513687 0.842865 255 255 255 255 
-0.187372 -0.326735 -0.0271665 -0.854246 -0.474616 0.212142 255 255 255 255 
0.184815 0.126676 0.116095 0.51765 0.114265 0.847928 255 255 255 255 
-0.136855 0.192846 0.0716353 -0.851801 0.372529 0.368316 255 255 255 255 
-0.107524 -0.12084 -0.020499 -0.0928027 0.894467 0.437398 255 255 255 255 
0.208933 0.180677 0.0425032 0.774457 0.307403 0.552919 255 255 255 255 
0.01318 0.116212 -0.206553 -0.0527798 -0.0163424 -0.998472 255 255 255 255 
-0.203534 -0.0795964 -0.134457 0.184817 -0.137603 0.973092 255 255 255 255 
0.0554532 -0.114975 0.129716 0.45848 0.263811 0.848646 255 255 255 255 
0.0752734 -0.11024 0.115846 0.556643 0.281849 0.781479 255 255 255 255 
0.0711 -0.0443784 -0.103533 0.219401 -0.796993 -0.56273 255 255 255 255 
0.132181 0.0125658 -0.138173 0.539844 -0.510672 -0.669166 255 255 255 255 
-0.165955 -0.313294 0.0266276 -0.762962 -0.29926 0.573003 255 255 255 255 
-0.0850638 0.153128 0.144302 -0.560646 -0.0062538 0.828032 255 255 255 255 
-0.120493 0.117672 0.110771 -0.628576 -0.111624 0.769696 255 255 255 255 
0.176346 0.139067 -0.123348 0.773639 0.0701764 -0.629728 255 255 255 255 
-0.032771 -0.133614 0.0237234 -0.948309 0.200214 0.246221 255 255 255 255 
-0.0253534 0.263385 -0.141249 -0.303849 0.729993 -0.612197 255 255 255 255 
-0.0785307 0.0177359 -0.142657 -0.345541 -0.57803 -0.739245 255 255 255 255 
-0.0413321 0.0353332 0.191761 -0.73105 0.0252344 0.681857 255 255 255 255 
0.119669 -0.191552 -0.0325774 0.85121 -0.0668354 -0.520552 255 255 255 255 
0.00740515 -0.244684 0.116207 0.0406483 -0.462991 0.88543 255 255 255 255 
-0.214694 -0.265186 -0.0953442 -0.950635 -0.285488 -0.121609 255 255 255 255 
-0.235506 0.170422 -0.0703508 -0.910345 -0.210384 -0.356385 255 255 255 255 
-0.188764 0.0968038 -0.109999 -0.84909 -0.486583 -0.205629 255 255 255 255 
0.0759366 0.234339 0.158413 0.259554 0.526614 0.809512 255 255 255 255 
-0.225304 -0.0982837 -0.151801 -0.82867 0.20031 0.522668 255 255 255 255 
-0.0194206 -0.252011 0.097364 -0.512528 -0.180873 0.839405 255 255 255 255 
-0.172658 -0.248218 0.0409669 -0.545222 0.0440478 0.837133 255 255 255 255 
-0.109157 -0.376853 -0.0790781 -0.0695642 -0.997532 -0.00956012 255 255 255 255 
-0.061647 0.149996 0.156856 -0.529603 -0.00214482 0.848243 255 255 255 255 
0.21026 0.0563464 -0.0447057 0.940148 -0.245081 -0.236763 255 255 255 255 
-0.147693 -0.355727 0.0247705 -0.806641 -0.356701 0.471269 255 255 255 255 
0.0245448 -0.249992 -0.164594 0.915896 0.045638 -0.398814 255 255 255 255 
-0.075535 0.269815 0.0766554 -0.532134 0.744582 0.403027 255 255 255 255 
-0.169176 -0.084728 -0.142142 0.143667 -0.351289 0.925179 255 255 255 255 
-0.032163 -0.35874 0.104216 -0.15252 0.532195 0.83277 255 255 255 255 
0.0135923 0.191813 -0.194253 -0.0116285 0.327283 -0.944855 255 255 255 255 
0.209043 0.237282 0.013497 0.312905 0.216689 0.924736 255 255 255 255 
-0.161775 0.0832776 0.0351611 -0.92856 -0.188661 0.319661 255 255 255 255 
-0.0982687 0.251896 -0.0825387 -0.336223 0.83214 -0.441018 255 255 255 255 
-0.181214 -0.210822 0.0305199 -0.558867 0.244262 0.792467 255 255 255 255 
-0.135564 0.100854 -0.143397 -0.290916 0.181451 -0.939385 255 255 255 255 
-0.0178193 0.0512197 0.214601 -0.139977 -0.238754 0.960938 255 255 255 255 
-0.19704 0.26173 -0.0722149 -0.246132 0.679774 -0.690888 255 255 255 255 
-0.0334386 -0.0550349 -0.0643629 -0.416781 -0.823178 -0.385578 255 255 255 255 
-0.0744997 -0.293923 -0.212269 0.0527276 -0.379987 -0.923488 255 255 255 255 
-0.137763 -0.253335 -0.212476 -0.380652 -0.291902 -0.877438 255 255 255 255 
0.103036 -0.180712 -0.0496878 0.706572 0.0655446 -0.704599 255 255 255 255 
0.0780188 0.273202 -0.117621 0.113155 0.768858 -0.629327 255 255 255 255 
0.0357604 -0.143276 0.136338 -0.305294 0.208377 0.92918 255 255 255 255 
-0.215219 -0.051466 -0.166111 -0.736423 0.564869 -0.372297 255 255 255 255 
0.173577 0.312195 -0.0880432 0.0834677 0.524759 -0.847149 255 255 255 255 
0.198056 0.138301 -0.0859649 0.877517 0.0193376 -0.479156 255 255 255 255 
-0.158213 0.0981904 0.0503159 -0.938804 -0.100634 0.329424 255 255 255 255 
-0.218502 -0.262775 -0.0658428 -0.967551 -0.252129 0.0166256 255 255 255 255 
-0.152917 0.145036 0.0660127 -0.937438 0.172529 0.302395 255 255 255 255 
-0.103609 -0.00557777 -0.0982897 -0.496553 -0.781447 -0.377857 255 255 255 255 
0.147948 0.194357 0.132891 0.516066 0.218108 0.828315 255 255 255 255 
0.175524 0.174284 -0.1117 0.739653 0.132838 -0.659748 255 255 255 255 
-0.132577 -0.370966 0.0372093 -0.0628085 -0.997952 0.0120936 255 255 255 255 
-0.0664471 -0.120177 -0.0340172 0.00563549 0.985424 0.170023 255 255 255 255 
0.174265 -0.0159741 -0.0162515 0.765362 -0.634245 -0.109338 255 255 255 255 
-0.105931 -0.203907 0.0430972 -0.239472 0.287873 0.927245 255 255 255 255 
-0.174347 0.258169 -0.0766856 -0.083394 0.81169 -0.578105 255 255 255 255 
-0.0662457 -0.369331 -0.0389349 -0.00678601 -0.999049 0.043069 255 255 255 255 
0.128467 0.313523 -0.0766736 -0.247116 0.805701 -0.538312 255 255 255 255 
0.201687 0.160488 0.072938 0.875304 0.236824 0.421613 255 255 255 255 
0.119648 0.238757 0.134285 0.474038 0.547352 0.689706 255 255 255 255 
0.150498 0.126035 -0.154949 0.656406 0.0429535 -0.753184 255 255 255 255 
-0.158727 -0.263781 0.0462828 -0.453267 0.0274703 0.890951 255 255 255 255 
-0.0601616 0.00784911 0.168109 -0.756461 -0.0732088 0.649928 255 255 255 255 
0.197068 0.321436 -0.0809368 0.369767 0.418314 -0.82963 255 255 255 255 
0.116677 0.0507507 -0.170217 0.485474 -0.303394 -0.819919 255 255 255 255 
-0.0122054 -0.218598 -0.208437 0.499002 0.123907 -0.857697 255 255 255 255 
-0.047911 -0.137432 -0.175952 0.387368 0.760543 -0.521077 255 255 255 255 
-0.21074 -0.180124 -0.0188593 -0.852109 0.326606 0.408948 255 255 255 255 
0.092384 0.0194031 -0.16884 0.341388 -0.490248 -0.801942 255 255 255 255 
-0.0778677 -0.374652 -0.0706971 0.00187101 -0.999057 0.0433831 255 255 255 255 
0.197554 0.151727 -0.0839297 0.86591 0.0315711 -0.499202 255 255 255 255 
-0.0221272 -0.258772 0.0928091 -0.500278 -0.188473 0.845103 255 255 255 255 
-0.13754 -0.233739 0.0498251 -0.237721 0.174895 0.955458 255 255 255 255 
0.0620104 0.314344 0.00515648 -0.0643791 0.996781 0.0477789 255 255 255 255 
0.0875092 0.268572 -0.119997 0.119447 0.740949 -0.660853 255 255 255 255 
-0.0193924 -0.125058 -0.0429059 0.000719591 0.991323 -0.131447 255 255 255 255 
0.174876 0.237664 0.0349774 0.694158 0.602149 0.394412 255 255 255 255 
0.100341 -0.0152839 -0.133644 0.37125 -0.678908 -0.633449 255 255 255 255 
0.2086 0.320439 -0.0751954 0.553071 0.330742 -0.764671 255 255 255 255 
0.0809212 -0.299116 0.0209691 0.842517 -0.259401 0.472097 255 255 255 255 
-0.109592 -0.371986 0.00188307 -0.0622825 -0.998039 0.00631068 255 255 255 255 
0.0382438 -0.219756 -0.103744 0.790697 0.146109 -0.594517 255 255 255 255 
0.0445224 0.13723 -0.205246 0.111647 0.101958 -0.988504 255 255 255 255 
-0.128098 0.244778 -0.0830881 -0.126578 0.864061 -0.487213 255 255 255 255 
0.000221546 -0.369355 -0.00688571 -0.0196062 -0.999486 0.0253673 255 255 255 255 
0.129659 0.299487 -0.0882452 -0.0755619 0.677933 -0.73123 255 255 255 255 
0.0293902 -0.221463 -0.121487 0.863894 0.191353 -0.465909 255 255 255 255 
0.0653621 0.139707 -0.200576 0.225729 0.111899 -0.967742 255 255 255 255 
-0.202886 -0.0590787 -0.13139 -0.765253 0.146887 0.626747 255 255 255 255 
0.0462666 0.109642 -0.205631 0.123248 -0.0341443 -0.991788 255 255 255 255 
0.0951411 -0.374462 -0.050967 0.049872 -0.998741 -0.00534526 255 255 255 255 
0.050576 0.128157 0.187225 0.437351 0.386208 0.812137 255 255 255 255 
-0.131645 -0.0191223 -0.134929 0.859769 -0.454463 -0.23294 255 255 255 255 
0.0277889 -0.242954 -0.143831 0.924598 0.0923035 -0.369591 255 255 255 255 
-0.0217243 -0.128303 -0.0946485 0.26339 0.946198 -0.187975 255 255 255 255 
0.027566 -0.321195 -0.117862 0.714477 0.0715416 -0.695991 255 255 255 255 
0.200055 0.208371 -0.0817455 0.737716 -0.00434139 -0.675097 255 255 255 255 
0.0376442 -0.325458 -0.10655 0.627813 0.19796 -0.75277 255 255 255 255 
-0.120126 0.179718 -0.138041 -0.407348 0.311761 -0.858413 255 255 255 255 
-0.171878 0.0614962 -0.0804241 -0.795498 -0.592113 -0.128783 255 255 255 255 
-0.120167 0.0332252 -0.137186 -0.354621 -0.576028 -0.736503 255 255 255 255 
-0.208748 -0.230287 -0.157133 -0.864578 -0.302494 -0.40125 255 255 255 255 
-0.00216471 0.244073 0.151933 -0.149159 0.640729 0.753138 255 255 255 255 
0.00516354 0.0807112 0.221075 -0.122309 -0.112954 0.986044 255 255 255 255 
0.214678 0.0538476 0.00437359 0.961584 -0.273169 -0.0270939 255 255 255 255 
-0.217965 0.158106 -0.0167372 -0.0659755 0.196336 0.978315 255 255 255 255 
-0.0989876 0.0111958 0.117365 -0.788282 -0.17013 0.591327 255 255 255 255 
0.0819175 0.282001 0.104825 0.26324 0.806124 0.529971 255 255 255 255 
-0.22003 -0.239265 -0.0264318 -0.961702 -0.0847515 0.260664 255 255 255 255 
0.0920843 -0.0506386 0.113534 0.418885 -0.772077 0.477947 255 255 255 255 
0.0154503 -0.275855 -0.172686 0.757824 -0.246773 -0.603992 255 255 255 255 
-0.0706841 -0.37436 0.0446095 -0.0385523 -0.999131 -0.0158259 255 255 255 255 
-0.133611 -0.206834 -0.223221 -0.150817 -0.0285355 -0.98815 255 255 255 255 
-0.00299904 -0.144918 0.114688 -0.651557 0.26652 0.71024 255 255 255 255 
-0.189888 -0.283217 0.0164202 -0.798865 -0.245858 0.54897 255 255 255 255 
0.143179 0.201643 -0.134144 0.59153 0.272057 -0.758998 255 255 255 255 
0.124798 0.291665 0.0337928 0.534836 0.762036 0.365037 255 255 255 255 
0.0251191 -0.034262 -0.130982 -0.021287 -0.783982 -0.620419 255 255 255 255 
-0.0385885 -0.0319315 0.145971 -0.382867 -0.720442 0.578253 255 255 255 255 
0.00897465 -0.176405 -0.15626 0.768234 0.447397 -0.457878 255 255 255 255 
0.15701 0.351797 -0.045014 -0.409272 0.856123 -0.315516 255 255 255 255 
-0.0626343 -0.0431932 -0.0482736 -0.541435 -0.805375 -0.241286 255 255 255 255 
0.110186 -0.373593 -0.0347464 0.0535969 -0.998563 -0.000331988 255 255 255 255 
-0.159409 0.130729 0.034686 -0.961961 0.105238 0.252104 255 255 255 255 
-0.0175487 0.298501 0.0711999 -0.244005 0.901988 0.356201 255 255 255 255 
0.0131001 0.00831665 0.200504 -0.0593472 -0.519219 0.852578 255 255 255 255 
0.0768926 0.0999508 0.190657 0.486363 0.378805 0.787374 255 255 255 255 
-0.103518 -0.0140186 -0.0446043 -0.641003 -0.755673 -0.134438 255 255 255 255 
0.012246 -0.314383 -0.140786 0.737977 -0.0974933 -0.667747 255 255 255 255 
-0.0045204 0.00608673 -0.16656 -0.166088 -0.582157 -0.795932 255 255 255 255 
-0.115854 0.2278 0.0762499 -0.748555 0.523615 0.406809 255 255 255 255 
-0.105362 0.256428 0.0430829 -0.675434 0.646329 0.355031 255 255 255 255 
0.037725 -0.0805191 -0.0539594 -0.0286449 -0.679842 -0.732799 255 255 255 255 
-0.0210529 0.0418879 -0.183608 -0.23394 -0.410802 -0.8812 255 255 255 255 
-0.153989 -0.116101 -0.040134 -0.316327 0.879964 0.354401 255 255 255 255 
0.0888558 -0.36704 -0.0893527 0.246095 -0.715302 -0.654049 255 255 255 255 
0.00341946 -0.324537 -0.153606 0.48586 -0.169357 -0.857472 255 255 255 255 
-0.0624197 -0.185349 -0.220337 0.247253 0.287865 -0.925202 255 255 255 255 
-0.0845028 -0.229766 -0.228826 0.0512036 -0.0431794 -0.997754 255 255 255 255 
-0.094648 -0.31106 0.0622478 -0.179874 0.413464 0.892577 255 255 255 255 
-0.189101 -0.328386 -0.0943435 -0.858094 -0.499555 -0.118827 255 255 255 255 
-0.0344877 -0.308619 0.0722405 -0.456954 -0.111858 0.882429 255 255 255 255 
0.0984594 -0.208063 -0.0521719 0.749638 -0.0499808 -0.659958 255 255 255 255 
0.00682347 -0.0167688 -0.150291 -0.110974 -0.696763 -0.708665 255 255 255 255 
-0.164174 -0.0024818 -0.17181 0.428422 0.212887 -0.878142 255 255 255 255 
0.104812 -0.10434 -0.0246943 0.693762 0.0713806 -0.716659 255 255 255 255 
-0.0145699 -0.0625807 0.102856 -0.337634 -0.792854 0.507332 255 255 255 255 
-0.0208948 0.0429566 0.212593 -0.153132 -0.28884 0.945051 255 255 255 255 
0.0547498 -0.254584 0.098715 0.427301 -0.572737 0.699561 255 255 255 255 
-0.0628723 -0.284934 -0.215274 0.141387 -0.33793 -0.930491 255 255 255 255 
-0.0351658 -0.163807 -0.196439 0.455537 0.567869 -0.685573 255 255 255 255 
-0.152571 0.214194 -0.0148444 -0.131772 0.0579092 0.989587 255 255 255 255 
0.0810812 -0.229206 -0.0643828 0.737696 -0.0514026 -0.673174 255 255 255 255 
0.0170411 -0.161145 0.133937 -0.442248 0.168095 0.881 255 255 255 255 
0.0932336 -0.187699 -0.0577406 0.683174 0.0672956 -0.727149 255 255 255 255 
0.221783 0.241853 -0.071325 0.753502 -0.0325735 -0.656638 255 255 255 255 
-0.0431504 0.26606 0.115455 -0.362412 0.734696 0.57348 255 255 255 255 
-0.0448282 -0.351122 0.096945 -0.152816 0.528944 0.834785 255 255 255 255 
0.0585074 0.0437049 -0.189663 0.178734 -0.368641 -0.912227 255 255 255 255 
-0.0809307 0.268468 -0.0629099 -0.3719 0.869003 -0.326381 255 255 255 255 
0.190153 0.033864 -0.0799481 0.837412 -0.373353 -0.399185 255 255 255 255 
-0.1192 0.00190514 -0.108693 0.659913 -0.745089 0.0967273 255 255 255 255 
0.180613 0.128062 -0.119169 0.799061 0.0310981 -0.600445 255 255 255 255 
0.115385 0.0388568 -0.166359 0.474542 -0.367681 -0.799763 255 255 255 255 
0.155711 0.234986 -0.111518 0.531498 0.200271 -0.823044 255 255 255 255 
0.113112 0.235189 0.14107 0.439238 0.498968 0.747062 255 255 255 255 
-0.234472 -0.0954976 -0.166274 -0.832821 0.187769 0.520723 255 255 255 255 
-0.0191586 0.0785287 -0.196821 -0.209949 -0.206965 -0.955556 255 255 255 255 
0.0507325 -0.248821 0.105827 0.364638 -0.56012 0.743845 255 255 255 255 
-0.109436 -0.176926 0.0331937 -0.252131 0.465537 0.848355 255 255 255 255 
-0.225825 -0.196398 -0.0931087 -0.999055 0.0203406 0.0384149 255 255 255 255 
0.170689 0.290514 -0.0978355 0.161583 0.43284 -0.886871 255 255 255 255 
-0.0607666 -0.376324 -0.0968998 0.00248544 -0.999899 0.0139702 255 255 255 255 
0.156704 0.03314 -0.129481 0.672223 -0.381579 -0.634439 255 255 255 255 
-0.0820147 -0.0424251 0.0711849 -0.589453 -0.790852 0.164619 255 255 255 255 
0.0796296 -0.373959 -0.0184024 0.0346585 -0.999266 0.0162979 255 255 255 255 
-0.04673 0.279718 0.0915247 -0.380505 0.80853 0.448883 255 255 255 255 
-0.247716 0.231062 -0.0439978 -0.91724 0.100655 -0.385408 255 255 255 255 
0.0526981 -0.344238 -0.101989 0.553309 0.231174 -0.800255 255 255 255 255 
-0.154506 -0.201444 -0.218673 -0.351681 -0.184829 -0.917692 255 255 255 255 
-0.0500426 -0.0606271 0.0053176 -0.620399 -0.776396 -0.110974 255 255 255 255 
0.22267 0.153595 -0.020167 0.957482 -0.0750955 -0.278546 255 255 255 255 
-0.0214401 0.257502 0.134689 -0.249208 0.697047 0.672325 255 255 255 255 
0.139507 -0.175096 0.047156 0.991359 -0.0049277 0.131082 255 255 255 255 
-0.0261703 -0.0552161 -0.0712854 -0.35997 -0.828111 -0.429713 255 255 255 255 
-0.0542624 0.0483703 0.171805 -0.747713 0.0586499 0.661427 255 255 255 255 
-0.0236936 0.000579551 0.190881 -0.242816 -0.585851 0.773187 255 255 255 255 
0.058572 -0.0452219 -0.10703 0.151188 -0.806305 -0.571852 255 255 255 255 
0.0320379 -0.219018 -0.1142 0.834528 0.186349 -0.518495 255 255 255 255 
-0.190001 -0.0506261 -0.203526 0.23111 0.350023 -0.907784 255 255 255 255 
-0.163084 0.0512863 -0.0110604 -0.830706 -0.553262 0.0618773 255 255 255 255 
-0.144393 0.0545412 0.060964 -0.883667 -0.299243 0.359982 255 255 255 255 
0.206167 0.0407787 -0.0452923 0.916117 -0.324937 -0.234832 255 255 255 255 
0.123995 0.128151 -0.174752 0.525268 0.0595416 -0.848851 255 255 255 255 
-0.0498338 0.0970699 0.159589 -0.660969 0.0343457 0.749627 255 255 255 255 
0.104544 0.280067 -0.101974 0.0280193 0.739188 -0.672916 255 255 255 255 
0.122799 0.190755 -0.157834 0.518961 0.294401 -0.802501 255 255 255 255 
-0.193339 -0.108131 -0.219812 0.251792 0.24103 -0.937286 255 255 255 255 
0.0152174 0.159693 0.184902 0.269192 0.490727 0.828687 255 255 255 255 
0.0611363 0.0397567 0.212678 0.085183 -0.390159 0.916799 255 255 255 255 
-0.0378179 -0.251323 0.0814308 -0.542531 -0.111754 0.832569 255 255 255 255 
0.123347 -0.109544 0.0488398 0.991122 0.131583 0.019038 255 255 255 255 
-0.182404 -0.057984 -0.128968 0.114172 -0.393117 0.912373 255 255 255 255 
0.0760654 0.273335 0.119315 0.219262 0.764381 0.606338 255 255 255 255 
0.0936662 -0.278024 0.00831055 0.915429 -0.297652 0.270911 255 255 255 255 
0.111593 -0.325482 -0.0222808 0.83605 -0.132617 0.532384 255 255 255 255 
0.144411 -0.0430468 0.0304414 0.740937 -0.66958 0.0517174 255 255 255 255 
0.0289204 0.316727 0.0258438 -0.0542846 0.985273 0.162141 255 255 255 255 
-0.000467086 0.305753 -0.0609024 -0.167149 0.949293 -0.266279 255 255 255 255 
-0.139848 -0.102371 -0.0798093 -0.21028 0.963844 0.163667 255 255 255 255 
-0.217073 -0.118083 -0.136339 -0.819733 0.276554 0.501553 255 255 255 255 
0.0470152 0.117825 0.198239 0.445754 0.412515 0.79444 255 255 255 255 
0.148208 0.353023 0.00686954 -0.491608 0.870552 -0.0214754 255 255 255 255 
-0.192412 0.26686 -0.0631875 -0.00401639 0.97294 -0.231023 255 255 255 255 
0.105767 0.220973 0.151423 0.411416 0.37828 0.829241 255 255 255 255 
0.165628 -0.00493876 0.100939 0.685342 -0.63212 0.361565 255 255 255 255 
-0.223599 0.217289 -0.0198521 -0.109852 0.100069 0.988898 255 255 255 255 
-0.105057 0.113265 0.117802 -0.591249 -0.130511 0.795859 255 255 255 255 
-0.184515 0.0657694 -0.111185 -0.781396 -0.566045 -0.262705 255 255 255 255 
0.04331 -0.254163 0.104938 0.303646 -0.547178 0.779997 255 255 255 255 
-0.169427 0.0690191 0.00997145 -0.905059 -0.362172 0.222935 255 255 255 255 
-0.158674 0.0373484 -0.0893881 -0.771527 -0.618896 -0.147357 255 255 255 255 
-0.204796 0.261287 -0.070247 -0.282853 0.659581 -0.696381 255 255 255 255 
-0.170214 -0.110009 -0.133309 -0.353844 0.922157 0.15627 255 255 255 255 
0.175087 -0.0157411 0.0303004 0.764569 -0.642155 0.0554149 255 255 255 255 
-0.167254 -0.109042 -0.161129 -0.236966 0.961021 0.142429 255 255 255 255 
-0.104583 -0.11725 -0.0279266 -0.0673272 0.922835 0.379266 255 255 255 255 
-0.137945 -0.355547 0.0445931 -0.800977 -0.25291 0.542653 255 255 255 255 
0.200652 0.132804 0.0904905 0.907963 0.151244 0.390805 255 255 255 255 
0.0405828 -0.0530871 0.139928 0.0823873 -0.794499 0.601651 255 255 255 255 
0.0751869 -0.0612515 -0.0684812 0.254482 -0.738898 -0.623914 255 255 255 255 
0.0244025 -0.287223 -0.127639 0.821239 -0.0900961 -0.563426 255 255 255 255 
-0.0970227 -0.141123 -0.200125 0.231833 0.72334 -0.65041 255 255 255 255 
-0.00594435 0.0519991 -0.192734 -0.160466 -0.347641 -0.923795 255 255 255 255 
-0.158376 -0.189699 -0.219558 -0.251991 -0.0934394 -0.963208 255 255 255 255 
-0.144603 -0.201489 -0.221475 -0.214187 -0.072142 -0.974125 255 255 255 255 
0.0679502 0.300114 -0.0755808 -0.030805 0.91818 -0.394964 255 255 255 255 
-0.102742 -0.291289 0.0538553 -0.189894 0.28846 0.938473 255 255 255 255 
0.00858551 -0.00606285 -0.160375 -0.102626 -0.639277 -0.762097 255 255 255 255 
-0.215065 0.207385 -0.100371 -0.606575 0.187332 -0.772641 255 255 255 255 
0.11462 0.248824 0.128349 0.448686 0.619446 0.64418 255 255 255 255 
-0.0211845 -0.373965 -0.0895342 -0.0111167 -0.998643 0.0508724 255 255 255 255 
-0.198328 -0.131417 -0.221646 -0.625511 -0.171761 -0.761074 255 255 255 255 
0.12382 -0.119364 0.0687531 0.94583 0.18571 0.266303 255 255 255 255 
0.127141 -0.0478224 0.0788777 0.622328 -0.709163 0.331354 255 255 255 255 
-0.0504198 -0.119406 -0.125589 0.291721 0.931267 -0.218267 255 255 255 255 
-0.0630101 -0.347809 -0.178395 0.263447 -0.443865 -0.856492 255 255 255 255 
-0.116675 -0.379678 -0.110366 -0.149425 -0.980642 -0.126541 255 255 255 255 
0.00879219 0.31261 -0.0355945 -0.127268 0.977017 -0.171 255 255 255 255 
-0.029102 -0.350652 0.0995066 -0.153313 0.531429 0.833113 255 255 255 255 
-0.149954 -0.186571 0.0349627 -0.320897 0.409006 0.854248 255 255 255 255 
0.216644 0.138732 -0.0359055 0.952968 -0.0565934 -0.297741 255 255 255 255 
-0.0264525 -0.127868 -0.120612 0.349726 0.90444 -0.244296 255 255 255 255 
0.247919 0.320417 -0.0293927 0.815569 0.257794 -0.518063 255 255 255 255 
-0.121183 -0.377001 -0.0812429 -0.10719 -0.993894 -0.0261583 255 255 255 255 
0.150516 0.0251883 0.160956 0.584112 -0.511523 0.630205 255 255 255 255 
-0.112531 -0.251314 -0.223214 -0.183462 -0.220303 -0.958023 255 255 255 255 
-0.161373 0.0537069 0.00954244 -0.865121 -0.475576 0.159353 255 255 255 255 
0.220582 0.0818496 0.0168054 0.985337 -0.170573 0.00396948 255 255 255 255 
-0.155196 -0.142987 -0.214117 0.211973 0.666355 -0.714869 255 255 255 255 
-0.0430123 -0.220755 0.0845258 -0.605176 0.00284601 0.796086 255 255 255 255 
0.0840788 0.199118 -0.17781 0.326885 0.346563 -0.879227 255 255 255 255 
0.0196905 -0.261696 -0.17609 0.844388 -0.101166 -0.526094 255 255 255 255 
-0.18107 0.12195 -0.122215 -0.418095 0.187905 -0.888757 255 255 255 255 
-0.0214873 -0.129541 -0.117241 0.371063 0.892576 -0.256166 255 255 255 255 
-0.0141333 -0.133822 -0.119052 0.416772 0.861969 -0.288634 255 255 255 255 
-0.135245 -0.26546 -0.209601 -0.379795 -0.319547 -0.868128 255 255 255 255 
-0.140307 -0.285419 -0.199311 -0.43245 -0.373454 -0.820682 255 255 255 255 
-0.148514 -0.285778 -0.194076 -0.493606 -0.380596 -0.781984 255 255 255 255 
-0.0100102 0.30241 0.0662654 -0.209289 0.915807 0.342776 255 255 255 255 
-0.0308604 0.294059 -0.0676168 -0.303574 0.909449 -0.284157 255 255 255 255 
0.134213 -0.0363483 -0.0684806 0.56666 -0.714894 -0.409661 255 255 255 255 
0.0578183 -0.372869 0.0189653 0.0259213 -0.999494 0.0184132 255 255 255 255 
0.235917 0.292505 -0.00262206 0.25544 0.0864113 0.962956 255 255 255 255 
0.0141509 0.0742321 -0.201537 -0.0521543 -0.22324 -0.973367 255 255 255 255 
-0.0977855 -0.122812 -0.174975 0.217103 0.854873 -0.471231 255 255 255 255 
-0.249511 0.233995 -0.0380628 -0.917996 0.11785 -0.378675 255 255 255 255 
0.00519769 -0.163768 -0.146563 0.720003 0.530131 -0.447836 255 255 255 255 
-0.219664 0.126433 -0.0550562 -0.873798 -0.45741 -0.165084 255 255 255 255 
-0.201686 0.108348 -0.0758597 -0.84055 -0.510096 -0.182423 255 255 255 255 
-0.0293972 0.300513 -0.0477669 -0.287777 0.930615 -0.226143 255 255 255 255 
-0.116616 0.133284 -0.147334 -0.418621 0.165546 -0.892945 255 255 255 255 
-0.19141 -0.130239 -0.0675941 -0.64303 0.716124 0.271438 255 255 255 255 
-0.0820112 -0.194236 0.0445724 -0.430715 0.296906 0.852251 255 255 255 255 
0.0240849 0.230801 0.164382 0.00298853 0.573093 0.819485 255 255 255 255 
0.134995 -0.2025 0.0179105 0.966956 -0.248009 -0.0590557 255 255 255 255 
0.0126344 -0.159815 -0.112401 0.659913 0.580716 -0.476743 255 255 255 255 
0.0298034 -0.155314 -0.0827476 0.503874 0.562653 -0.655388 255 255 255 255 
-0.04122 -0.0276405 -0.114977 -0.327817 -0.781357 -0.531053 255 255 255 255 
-0.174903 -0.352016 -0.0720484 -0.817411 -0.575243 -0.030571 255 255 255 255 
-0.144747 -0.267308 -0.203694 -0.442747 -0.337677 -0.830632 255 255 255 255 
0.108803 -0.362909 -0.0211743 0.795078 -0.17738 0.57999 255 255 255 255 
0.0543432 -0.103272 -0.0444686 0.190657 0.357742 -0.91415 255 255 255 255 
0.0469492 -0.0118044 -0.15689 0.0949395 -0.665509 -0.740327 255 255 255 255 
0.0752787 0.281786 -0.106752 0.0772334 0.810909 -0.580053 255 255 255 255 
-0.0481845 -0.132184 -0.167038 0.375082 0.807661 -0.45497 255 255 255 255 
-0.0441196 -0.154018 0.0518876 -0.767555 0.352651 0.535253 255 255 255 255 
-0.195109 0.141553 -0.113172 -0.518796 0.113991 -0.847264 255 255 255 255 
-0.197228 -0.315293 -0.0460013 -0.886981 -0.450255 0.102639 255 255 255 255 
0.028441 -0.185638 -0.108781 0.732469 0.386261 -0.560617 255 255 255 255 
0.245884 0.233463 -0.0131224 0.96727 -0.126575 -0.219926 255 255 255 255 
-0.0803143 -0.267098 0.0491948 -0.216109 0.179567 0.959715 255 255 255 255 
-0.0641081 -0.120898 -0.152472 0.292773 0.895162 -0.336109 255 255 255 255 
0.192675 0.378587 -0.00837617 -0.101497 0.85287 0.512162 255 255 255 255 
-0.027039 -0.313512 0.0757491 -0.162442 0.516548 0.840708 255 255 255 255 
0.107703 -0.220812 -0.038476 0.828402 -0.151212 -0.539338 255 255 255 255 
-0.0339277 -0.188695 -0.211496 0.435744 0.353134 -0.827903 255 255 255 255 
0.0265294 0.213671 -0.184622 0.0734583 0.428187 -0.900699 255 255 255 255 
-0.178623 -0.113921 -0.120479 -0.403152 0.901002 0.160199 255 255 255 255 
0.100636 -0.130515 0.104709 0.679471 0.245085 0.691558 255 255 255 255 
-0.162833 0.142708 0.00240777 -0.954418 0.162886 0.250108 255 255 255 255 
0.0723509 0.313786 -0.0127881 -0.130155 0.990265 -0.0493404 255 255 255 255 
-0.0506675 0.0444345 0.178192 -0.74403 0.0480005 0.66642 255 255 255 255 
0.113772 -0.211823 -0.0340754 0.841274 -0.140482 -0.522036 255 255 255 255 
-0.0272781 -0.01177 -0.143853 -0.256277 -0.684894 -0.682087 255 255 255 255 
-0.203951 -0.254235 -0.147825 -0.848578 -0.337118 -0.407757 255 255 255 255 
-0.0204649 -0.238451 -0.213646 0.432175 -0.0281559 -0.90135 255 255 255 255 
0.0787431 -0.173553 0.133479 0.362764 0.0443261 0.930826 255 255 255 255 
-0.234008 -0.118539 -0.16035 -0.855222 0.204474 0.47622 255 255 255 255 
0.15243 0.209963 -0.12163 0.602285 0.232109 -0.763792 255 255 255 255 
0.0185819 0.0307922 -0.18708 -0.039476 -0.445976 -0.894174 255 255 255 255 
-0.041931 0.0770257 0.183361 -0.699974 0.11868 0.704238 255 255 255 255 
-0.11504 0.195388 0.112644 -0.730189 0.353491 0.584695 255 255 255 255 
-0.164966 0.011963 -0.160606 -0.774492 0.559655 -0.29487 255 255 255 255 
0.220351 0.106498 -0.0183978 0.97627 -0.0986925 -0.192758 255 255 255 255 
0.0986177 -0.0715326 0.0720233 0.564585 -0.729757 0.385614 255 255 255 255 
-0.179427 0.0152127 -0.128003 -0.858105 0.0843664 0.506496 255 255 255 255 
0.130445 -0.16152 0.07395 0.921654 0.12139 0.368535 255 255 255 255 
-0.036493 0.0209467 0.197399 -0.7294 -0.00317063 0.68408 255 255 255 255 
-0.227926 0.133552 -0.0223056 -0.900818 -0.431449 -0.0487633 255 255 255 255 
0.0195154 -0.202719 -0.154071 0.870652 0.300818 -0.389196 255 255 255 255 
0.12029 -0.0615964 0.0588848 0.677733 -0.689594 0.255222 255 255 255 255 
-0.157865 0.10454 0.0534811 -0.942507 -0.0683973 0.327113 255 255 255 255 
0.205454 0.267451 -0.0872057 0.599737 0.0924811 -0.794835 255 255 255 255 
-0.0130405 0.143805 0.18175 -0.541784 0.171065 0.822926 255 255 255 255 
-0.0783892 0.140999 -0.172027 -0.434377 0.142304 -0.889419 255 255 255 255 
-0.0852761 -0.373985 -0.156699 -0.0777575 -0.956937 -0.279687 255 255 255 255 
0.136354 -0.193446 0.009885 0.976079 -0.164894 -0.141702 255 255 255 255 
-0.214794 -0.206363 -0.0111683 -0.90219 0.143673 0.406708 255 255 255 255 
-0.0770932 -0.281098 -0.218135 0.0410069 -0.325944 -0.944499 255 255 255 255 
0.224085 0.356514 -0.00139179 0.237647 0.0253472 0.971021 255 255 255 255 
-0.0324578 -0.374047 0.103524 -0.0455154 -0.991721 0.120071 255 255 255 255 
0.122511 -0.0550504 0.0702626 0.64188 -0.70389 0.304186 255 255 255 255 
0.21154 0.0889424 -0.0536892 0.946652 -0.118739 -0.299583 255 255 255 255 
-0.126067 0.093735 0.100444 -0.705474 -0.13479 0.6958 255 255 255 255 
-0.14188 -0.0271299 -0.15685 0.882166 -0.369892 -0.291483 255 255 255 255 
0.0137701 0.232456 -0.177108 5.08747e-005 0.512168 -0.858885 255 255 255 255 
0.0706758 0.0463667 -0.188162 0.238856 -0.352264 -0.904908 255 255 255 255 
0.0214057 -0.371004 0.0867723 0.84795 -0.245904 0.469587 255 255 255 255 
-0.147388 0.243737 -0.0874175 -0.0979658 0.772817 -0.627021 255 255 255 255 
-0.0529778 0.1745 -0.181785 -0.371907 0.253806 -0.892898 255 255 255 255 
0.0178883 0.102906 0.224457 -0.108116 -0.0617274 0.99222 255 255 255 255 
0.0878984 -0.281099 -0.0462359 0.95448 0.0240348 -0.297305 255 255 255 255 
0.0942114 -0.00717598 0.179606 0.350521 -0.610472 0.710253 255 255 255 255 
-0.176851 -0.26349 0.0366601 -0.647919 -0.0705621 0.758434 255 255 255 255 
0.204791 0.366571 -0.0457147 -0.084179 0.810073 -0.580255 255 255 255 255 
-0.113927 -0.0133452 0.0406138 -0.756007 -0.648898 0.0859381 255 255 255 255 
-0.117932 0.208603 -0.12605 -0.359252 0.497477 -0.789592 255 255 255 255 
0.241108 0.27758 -0.052203 0.869872 0.0251815 -0.492634 255 255 255 255 
-0.0288937 -0.284419 0.0797816 -0.480805 -0.166072 0.860957 255 255 255 255 
-0.169769 0.0164338 -0.15014 -0.142639 0.186783 -0.971991 255 255 255 255 
0.204687 0.16582 0.0618871 0.861991 0.252868 0.43935 255 255 255 255 
0.166348 -0.0236721 0.0341838 0.744897 -0.66335 0.0713832 255 255 255 255 
-0.240532 0.189279 -0.0631979 -0.901654 -0.0996446 -0.420821 255 255 255 255 
0.0410333 -0.23664 0.117397 0.250991 -0.510963 0.822144 255 255 255 255 
-0.0931858 0.0966811 0.119402 -0.619928 -0.107525 0.777256 255 255 255 255 
-0.0532536 0.248842 0.128745 -0.41866 0.639114 0.64518 255 255 255 255 
0.148331 0.071313 -0.151411 0.643237 -0.198424 -0.739509 255 255 255 255 
-0.0168709 -0.130096 -0.099234 0.315484 0.921332 -0.227192 255 255 255 255 
-0.141556 0.181295 0.0718471 -0.872453 0.332227 0.358401 255 255 255 255 
-0.103442 0.218443 -0.126491 -0.391669 0.565835 -0.725553 255 255 255 255 
0.210454 0.197858 -0.0674005 0.823292 -0.0541789 -0.565026 255 255 255 255 
0.171434 0.0588781 -0.12392 0.755519 -0.244809 -0.607667 255 255 255 255 
0.142906 0.213641 0.131928 0.560736 0.370057 0.740698 255 255 255 255 
-0.0106836 0.00339699 0.196205 -0.164119 -0.556737 0.814315 255 255 255 255 
0.0809268 0.0120946 -0.168813 0.275703 -0.534344 -0.799039 255 255 255 255 
0.12827 0.272128 -0.108167 0.0611019 0.630523 -0.773762 255 255 255 255 
-0.0436257 -0.354916 -0.166472 0.342059 -0.380141 -0.859353 255 255 255 255 
-0.197691 0.219143 -0.104749 -0.326923 0.458092 -0.826604 255 255 255 255 
0.0160555 -0.108452 -0.035143 -0.0358557 0.697634 -0.715556 255 255 255 255 
0.101291 -0.184436 0.122583 0.713923 0.127906 0.688443 255 255 255 255 
0.0174989 0.198643 -0.191793 0.0196607 0.360087 -0.932712 255 255 255 255 
-0.0105305 -0.0129076 0.183715 -0.212027 -0.640388 0.738206 255 255 255 255 
-0.0751599 -0.11151 -0.065878 0.101983 0.991086 0.0857168 255 255 255 255 
-0.221157 -0.113863 -0.205156 -0.87096 -0.0659253 -0.48691 255 255 255 255 
0.152863 -0.0358173 0.0262303 0.737318 -0.674567 0.0363576 255 255 255 255 
0.138457 0.329297 0.0171247 0.319493 -0.015185 0.947467 255 255 255 255 
-0.15741 -0.0773099 -0.16266 0.941154 -0.148731 -0.303493 255 255 255 255 
-0.0549689 -0.369796 -0.163844 0.319325 -0.403314 -0.857537 255 255 255 255 
0.163806 -0.0199327 0.0699908 0.717521 -0.657675 0.229407 255 255 255 255 
-0.110609 -0.339693 -0.190021 -0.0802794 -0.499675 -0.862485 255 255 255 255 
-0.0214502 -0.12905 -0.110047 0.330108 0.91682 -0.224656 255 255 255 255 
-0.172161 0.075181 0.0065911 -0.920425 -0.291804 0.260133 255 255 255 255 
-0.195593 0.094693 -0.00457186 -0.862224 -0.506482 -0.00674962 255 255 255 255 
-0.226894 0.202672 -0.0204871 -0.0801017 0.102443 0.991509 255 255 255 255 
-0.11613 -0.371934 0.0601902 -0.0509663 -0.998641 0.0109303 255 255 255 255 
-0.0657393 -0.0512985 0.0805991 -0.527691 -0.814489 0.241143 255 255 255 255 
0.033741 -0.279371 0.0926582 0.417001 -0.533523 0.735842 255 255 255 255 
-0.238339 0.261091 -0.0464202 -0.878812 0.253062 -0.404537 255 255 255 255 
-0.0468874 0.202973 -0.175365 -0.35926 0.389399 -0.848116 255 255 255 255 
0.0409446 -0.364976 0.0535583 0.82698 -0.255446 0.500851 255 255 255 255 
-0.136352 0.114651 0.0979827 -0.699504 -0.114217 0.705442 255 255 255 255 
0.00165232 0.131254 0.200155 -0.544532 0.484458 0.684679 255 255 255 255 
0.000896971 0.30895 0.0550641 -0.158172 0.939251 0.304614 255 255 255 255 
-0.0569654 0.0954332 -0.185318 -0.330441 -0.0834507 -0.94013 255 255 255 255 
-0.0266654 0.282999 -0.106282 -0.295245 0.860058 -0.41609 255 255 255 255 
0.0108936 0.224699 -0.181269 -0.00911039 0.472078 -0.88151 255 255 255 255 
0.154256 0.00677468 -0.111604 0.648926 -0.534836 -0.541151 255 255 255 255 
-0.0687314 0.0970897 -0.1787 -0.350476 -0.0463943 -0.935422 255 255 255 255 
0.153182 0.269581 -0.10673 0.301077 0.33633 -0.89232 255 255 255 255 
0.242085 0.20967 -0.00806048 0.959487 -0.136054 -0.246727 255 255 255 255 
0.0205842 0.274016 -0.139002 0.00266115 0.77877 -0.627304 255 255 255 255 
0.107232 -0.141792 -0.0364284 0.671102 0.143418 -0.72736 255 255 255 255 
0.101914 -0.19703 0.119719 0.52102 -0.531627 0.667765 255 255 255 255 
0.206572 0.0340518 0.066024 0.910009 -0.390003 0.140648 255 255 255 255 
-0.102688 -0.00928218 0.105972 -0.776395 -0.333137 0.535006 255 255 255 255 
-0.0854364 -0.0236022 0.119269 -0.59624 -0.613372 0.517951 255 255 255 255 
0.0342375 0.221936 -0.179078 0.111267 0.474552 -0.873167 255 255 255 255 
0.010904 -0.314623 0.083895 -0.162149 0.52391 0.836197 255 255 255 255 
-0.0407835 0.221491 0.157404 -0.400352 0.474229 0.784108 255 255 255 255 
0.203921 0.0291842 0.073749 0.883858 -0.436579 0.167909 255 255 255 255 
0.117954 0.246199 -0.131921 0.423277 0.412988 -0.806398 255 255 255 255 
-0.0272064 0.241706 -0.161797 -0.304396 0.588083 -0.749334 255 255 255 255 
0.0464056 0.313558 0.0440519 0.0252647 0.964956 0.261193 255 255 255 255 
-0.0929713 -0.0305842 0.0979251 -0.591897 -0.728587 0.344701 255 255 255 255 
-0.115106 0.267848 -0.0112957 -0.231161 0.945058 -0.231151 255 255 255 255 
0.000612717 0.316541 0.0139069 -0.146827 0.984586 0.0950398 255 255 255 255 
0.0332468 0.198035 0.176391 0.233887 0.382517 0.893856 255 255 255 255 
-0.111631 0.269787 -0.000685094 -0.651962 0.673363 0.348607 255 255 255 255 
0.110414 0.125122 0.149669 0.466363 0.273254 0.841331 255 255 255 255 
-0.00480887 0.314803 0.0246309 -0.171615 0.972363 0.158302 255 255 255 255 
-0.012954 -0.310593 0.0767696 -0.164286 0.518385 0.839218 255 255 255 255 
-0.0361924 0.306912 -0.0101853 -0.28391 0.956024 -0.0735757 255 255 255 255 
0.143168 0.0972968 0.141869 0.484503 0.309203 0.818322 255 255 255 255 
-0.014854 -0.342325 0.0966283 -0.155779 0.529806 0.83369 255 255 255 255 
-0.0267187 -0.324357 0.0827743 -0.158082 0.524765 0.83644 255 255 255 255 
0.0720935 0.243576 -0.154954 0.206943 0.603726 -0.769863 255 255 255 255 
0.13638 0.135022 0.136237 0.440008 0.165704 0.882573 255 255 255 255 
0.0664806 -0.0599095 0.116241 0.285658 -0.777885 0.559728 255 255 255 255 
0.0444816 -0.373402 0.0343854 0.0290999 -0.999472 0.0144379 255 255 255 255 
0.0238194 -0.354747 0.0894366 0.844619 -0.245486 0.475769 255 255 255 255 
-0.127676 0.129555 0.109639 -0.652424 -0.0685334 0.754749 255 255 255 255 
-0.101602 -0.36857 -0.169468 -0.165889 -0.89947 -0.404271 255 255 255 255 
0.0585389 0.312315 0.0421579 0.0579415 0.96572 0.253039 255 255 255 255 
-0.162176 0.260623 -0.0145286 -0.150869 0.0640088 0.986479 255 255 255 255 
-0.00544044 0.290401 -0.105255 -0.179909 0.8918 -0.415121 255 255 255 255 
0.0612457 0.208494 0.170998 0.271418 0.365849 0.890217 255 255 255 255 
0.110613 -0.199118 0.110471 0.590429 -0.546153 0.594231 255 255 255 255 
0.0676665 0.134743 0.171879 0.453169 0.305568 0.837416 255 255 255 255 
0.0199285 0.178139 0.181293 0.266484 0.40694 0.87372 255 255 255 255 
-0.126805 0.161414 0.113816 -0.731772 0.168748 0.660328 255 255 255 255 
-0.019876 0.163417 0.177969 -0.497563 0.140571 0.855962 255 255 255 255 
-0.162247 -0.321752 -0.166152 -0.677336 -0.480597 -0.556994 255 255 255 255 
0.242204 0.21648 -0.0145496 0.958133 -0.137206 -0.251308 255 255 255 255 
0.236274 0.204454 -0.0258421 0.934113 -0.135054 -0.330443 255 255 255 255 
0.226671 0.191765 -0.0375444 0.910684 -0.11536 -0.396669 255 255 255 255 
0.229537 0.178419 -0.0192881 0.943675 -0.106049 -0.313417 255 255 255 255 
0.00925855 0.315728 -0.0157457 -0.123197 0.989414 -0.0766944 255 255 255 255 
-0.248157 0.186704 -0.0302789 -0.961765 -0.258534 0.0903796 255 255 255 255 
0.103613 -0.118015 0.0953978 0.698066 0.263301 0.665865 255 255 255 255 
-0.163805 0.136906 -0.127095 -0.402544 0.199273 -0.893448 255 255 255 255 
0.0932902 -0.258979 -0.0376674 0.949078 -0.127358 -0.288152 255 255 255 255 
-0.186895 -0.322062 -0.0159728 -0.848713 -0.450189 0.277517 255 255 255 255 
-0.0143622 -0.0696015 0.0891538 -0.381856 -0.775108 0.503382 255 255 255 255 
0.0255322 0.112603 0.216547 0.41735 0.459277 0.784145 255 255 255 255 
-0.107084 -0.00048735 0.102798 -0.797212 -0.285629 0.531853 255 255 255 255 
0.222507 0.375366 -0.0124726 0.100236 0.992046 -0.0761462 255 255 255 255 
-0.230724 0.232804 -0.0807651 -0.876407 0.0493124 -0.47904 255 255 255 255 
0.0331334 -0.103244 -0.0390823 0.023985 0.549749 -0.834986 255 255 255 255 
0.00602636 -0.301562 -0.161529 0.70897 -0.296299 -0.639975 255 255 255 255 
-0.0785988 0.230141 -0.134582 -0.431234 0.609493 -0.665248 255 255 255 255 
-0.167922 -0.109741 -0.145741 -0.279904 0.950466 0.13516 255 255 255 255 
0.186018 0.313739 -0.086867 0.17655 0.489712 -0.853822 255 255 255 255 
-0.132633 0.126944 0.105544 -0.685957 -0.0688689 0.724376 255 255 255 255 
0.0279494 -0.313057 -0.113343 0.707233 0.0970753 -0.700284 255 255 255 255 
-0.17396 0.0208594 -0.136556 -0.837931 0.458448 -0.296137 255 255 255 255 
0.0575502 0.10487 0.200868 0.46687 0.383112 0.79703 255 255 255 255 
0.0356609 0.152638 0.182531 0.353967 0.389478 0.850303 255 255 255 255 
-0.152105 0.135812 0.0766075 -0.93168 0.116316 0.344155 255 255 255 255 
0.176039 0.120231 0.121025 0.493647 0.126208 0.860456 255 255 255 255 
-0.145889 0.115212 0.0892239 -0.793123 -0.0918072 0.602102 255 255 255 255 
-0.137235 -0.34704 0.049826 -0.791113 -0.228385 0.567433 255 255 255 255 
-0.195153 -0.0351822 -0.128712 -0.720115 0.0920297 0.687725 255 255 255 255 
-0.184455 -0.0699004 -0.134325 0.130173 -0.338894 0.931776 255 255 255 255 
0.0195479 -0.295832 -0.135026 0.794784 -0.128162 -0.593206 255 255 255 255 
-0.152937 -0.237634 -0.209152 -0.448773 -0.287626 -0.846094 255 255 255 255 
-0.185553 -0.0201842 -0.171163 -0.73856 0.585663 -0.333959 255 255 255 255 
-0.10095 -0.0275833 0.0706142 -0.674759 -0.720819 0.15849 255 255 255 255 
-0.184467 -0.0349018 -0.195268 0.374792 0.317698 -0.870976 255 255 255 255 
-0.210065 -0.133563 -0.212634 -0.732206 -0.166472 -0.660426 255 255 255 255 
-0.135482 -0.370648 0.0107903 -0.0755357 -0.997027 0.0151969 255 255 255 255 
0.0872471 -0.370474 -0.00334068 0.77137 -0.191652 0.606843 255 255 255 255 
0.0558807 0.239365 0.15874 0.127123 0.600077 0.789777 255 255 255 255 
-0.0111472 -0.180334 -0.191541 0.600983 0.445085 -0.663866 255 255 255 255 
0.105293 -0.373576 -0.0269565 0.0482554 -0.998816 0.00617828 255 255 255 255 
0.0756555 -0.0874586 -0.0407876 0.309815 -0.626509 -0.715193 255 255 255 255 
-0.109408 -0.0189713 0.0648122 -0.734222 -0.660313 0.157809 255 255 255 255 
-0.142614 0.194466 0.0353388 -0.889642 0.337777 0.307317 255 255 255 255 
-0.0126829 0.153553 0.18117 -0.521015 0.161707 0.83809 255 255 255 255 
0.237013 0.35436 -0.00459621 0.240111 0.0328853 0.970188 255 255 255 255 
-0.110943 -0.00561256 0.093701 -0.805506 -0.35754 0.472574 255 255 255 255 
-0.0995655 -0.0289529 0.0554999 -0.680329 -0.726141 0.0993566 255 255 255 255 
-0.137429 -0.280566 0.0504352 -0.333094 0.10502 0.937027 255 255 255 255 
0.133162 0.338716 0.00258903 -0.457752 0.888967 -0.0141906 255 255 255 255 
-0.00567508 -0.229057 0.116406 -0.524779 -0.122628 0.842359 255 255 255 255 
-0.139218 0.133569 0.100763 -0.711288 -0.0423865 0.701621 255 255 255 255 
0.0103593 0.121112 0.215528 -0.372694 0.600198 0.707716 255 255 255 255 
0.239454 0.210297 -0.0204213 0.945839 -0.137059 -0.294284 255 255 255 255 
-0.101203 0.266932 0.0305813 -0.642025 0.688279 0.337753 255 255 255 255 
0.232323 0.170929 -0.00318455 0.971407 -0.0885832 -0.220276 255 255 255 255 
-0.0829755 -0.0342495 0.106228 -0.546566 -0.733255 0.404478 255 255 255 255 
0.00948878 0.202312 0.177119 0.133813 0.464436 0.875439 255 255 255 255 
-0.0833111 -0.0403022 0.0855217 -0.569477 -0.782453 0.251919 255 255 255 255 
0.0917782 -0.0888925 -0.0329167 0.610229 0.0402279 -0.791203 255 255 255 255 
-0.13585 0.139567 0.105015 -0.696896 -0.0138424 0.717039 255 255 255 255 
0.0236859 0.170632 0.181593 0.292404 0.405565 0.866035 255 255 255 255 
-0.143378 0.131113 0.0965624 -0.746651 -0.0304904 0.664517 255 255 255 255 
-0.0332676 0.163142 0.171851 -0.49522 0.115805 0.861015 255 255 255 255 
