ply
format ascii 1.0
comment VCGLIB generated
element vertex 633
property float x
property float y
property float z
property float nx
property float ny
property float nz
property uchar red
property uchar green
property uchar blue
property uchar alpha
element face 0
property list uchar int vertex_indices
end_header
0.0743336 -0.22504 0.120953 -0.993532 -0.0689288 -0.0902372 255 255 255 255 
-0.0779508 -0.222607 0.124599 -0.740805 0.543429 -0.394832 255 255 255 255 
0.0908331 0.162016 0.225762 0.897841 0.433869 0.0750998 255 255 255 255 
-0.0288181 0.242368 0.325163 -0.604903 0.628616 0.488809 255 255 255 255 
-0.143447 0.0406171 0.117928 -0.990215 0.136865 -0.0272505 255 255 255 255 
0.0644509 0.211795 0.281052 0.91104 0.221666 0.347664 255 255 255 255 
0.0789385 -0.206299 0.131612 0.953299 0.235723 -0.188826 255 255 255 255 
0.11187 0.0202352 -0.00913158 0.75955 0.428103 -0.489705 255 255 255 255 
-0.109487 -0.0633062 0.0363307 -0.489877 -0.867829 0.0830282 255 255 255 255 
0.0535927 -0.098126 -0.0520052 0.382493 -0.913749 0.136971 255 255 255 255 
0.127746 -0.0371757 0.00255392 0.960983 -0.0477369 -0.272458 255 255 255 255 
-0.0956123 0.147383 0.214006 -0.897243 0.430506 0.098082 255 255 255 255 
-0.0697021 -0.142275 0.119565 0.99338 -0.0992543 0.0578395 255 255 255 255 
0.0649783 0.223068 0.256335 0.881277 0.465346 0.0824891 255 255 255 255 
-0.0636518 -0.0874789 -0.00280373 -0.327364 -0.942778 0.063261 255 255 255 255 
0.06135 -0.0744226 -0.148002 -0.95978 -0.26034 0.105094 255 255 255 255 
-0.110695 -0.0358399 -0.0474201 -0.906984 0.0968915 -0.409868 255 255 255 255 
-0.143994 0.0341799 0.132613 -0.996638 0.0480316 0.0663803 255 255 255 255 
-0.0612551 0.0182487 -0.0584462 -0.367158 0.660595 -0.654835 255 255 255 255 
-0.0068047 -0.197096 -0.266735 -0.00439678 -0.894392 0.447262 255 255 255 255 
-0.12414 -0.0241234 0.144315 -0.600276 -0.703873 0.379778 255 255 255 255 
0.0852788 -0.225363 0.222752 -0.0217063 -0.992909 0.116876 255 255 255 255 
0.135593 0.00257633 0.0294253 0.957855 0.0864203 -0.273945 255 255 255 255 
0.0823073 0.177398 0.208535 0.851288 0.51719 -0.0884496 255 255 255 255 
-0.030553 0.183178 0.14796 -0.292918 0.797218 -0.527867 255 255 255 255 
-0.125013 0.0569869 0.213481 -0.888183 -0.103486 0.447685 255 255 255 255 
-0.0985958 0.143409 0.171981 -0.797123 0.595963 -0.0970739 255 255 255 255 
-0.0483834 -0.0701599 -0.220968 0.913573 0.264249 -0.309123 255 255 255 255 
0.0963467 -0.00980637 0.210197 0.573136 -0.610705 0.546402 255 255 255 255 
-0.057531 0.0826092 0.00854365 -0.30874 0.718563 -0.623175 255 255 255 255 
-0.0118997 -0.232505 -0.333939 -0.0346439 -0.878487 0.476508 255 255 255 255 
-0.0693137 0.208162 0.236097 -0.886163 0.463257 -0.0103708 255 255 255 255 
-0.0257633 0.211223 0.34678 -0.64642 0.4657 0.604372 255 255 255 255 
0.118576 -0.227737 0.209083 -0.73379 0.317304 0.600725 255 255 255 255 
-0.103794 0.129625 0.13431 -0.748247 0.632536 -0.20006 255 255 255 255 
-0.0667768 -0.0975379 0.0740101 -0.686787 -0.521391 -0.506433 255 255 255 255 
0.0769414 -0.0309397 -0.0945327 0.619549 0.528183 -0.580674 255 255 255 255 
0.0160369 -0.128039 -0.0939197 0.11323 -0.949127 0.293831 255 255 255 255 
0.102315 0.105407 0.0779873 0.67247 0.629827 -0.388717 255 255 255 255 
0.10021 -0.0646855 0.0731174 0.585876 -0.803289 0.107125 255 255 255 255 
0.0153201 -0.000716244 -0.0921437 0.0611667 0.707597 -0.703964 255 255 255 255 
-0.0370794 -0.0985099 -0.00609626 -0.239663 -0.968898 0.0616303 255 255 255 255 
-0.00597054 0.217788 0.36308 -0.610374 0.559602 0.560615 255 255 255 255 
0.137371 0.00914589 0.160383 0.948792 -0.199071 0.245285 255 255 255 255 
-0.115471 0.00586398 -0.0158843 -0.760364 0.41437 -0.500144 255 255 255 255 
-0.0131377 -0.0219992 0.262831 -0.133181 -0.649507 0.748601 255 255 255 255 
0.00595615 -0.170926 -0.205709 0.0289655 -0.92523 0.378299 255 255 255 255 
-0.0776379 0.112053 0.28466 -0.669702 -0.0247574 0.742217 255 255 255 255 
0.0544991 0.0885168 0.0120032 0.278332 0.734309 -0.619129 255 255 255 255 
-0.0866367 0.0135826 -0.0450201 -0.554775 0.572779 -0.603447 255 255 255 255 
0.0765441 -0.217326 0.110659 0.950668 0.233216 -0.204548 255 255 255 255 
0.0317088 0.161336 0.316933 0.629658 -0.129856 0.765943 255 255 255 255 
-0.105837 0.124036 0.22047 -0.912737 0.350517 0.209876 255 255 255 255 
-0.0346262 0.0451965 0.296707 -0.315929 -0.333169 0.888362 255 255 255 255 
0.0260741 -0.134915 -0.227263 0.313803 0.724887 -0.613243 255 255 255 255 
-0.0795531 0.171827 0.18565 -0.782607 0.598448 -0.171426 255 255 255 255 
0.0208909 0.217054 0.175712 0.333857 0.742105 -0.581223 255 255 255 255 
0.054863 0.238182 0.280672 0.814823 0.571948 0.0945432 255 255 255 255 
-0.0780561 -0.228844 0.214633 0.989247 0.14625 -0.00101802 255 255 255 255 
0.0365023 0.176635 0.317783 0.722734 -0.141458 0.676495 255 255 255 255 
-0.00513314 0.254385 0.211444 -0.13846 0.843409 -0.519124 255 255 255 255 
0.141187 -0.0146327 0.0976602 0.936335 -0.343396 0.0731839 255 255 255 255 
-0.0187321 0.191642 0.153888 -0.212707 0.790803 -0.573922 255 255 255 255 
0.10521 -0.068936 -0.0120987 0.516159 -0.855734 0.0360356 255 255 255 255 
0.0951066 0.0726283 0.0236696 0.609133 0.601916 -0.516386 255 255 255 255 
0.00403119 0.268633 0.299467 0.0738264 0.983884 0.162858 255 255 255 255 
0.114771 0.0109443 -0.0131837 0.790278 0.384841 -0.476821 255 255 255 255 
0.0582056 -0.107706 -0.169143 -0.990873 -0.134475 0.00937948 255 255 255 255 
0.0775514 -0.163087 0.135528 0.836013 0.376734 0.398941 255 255 255 255 
0.104266 -0.00383195 0.206968 0.611117 -0.581191 0.537358 255 255 255 255 
0.0421104 -0.132659 -0.13845 0.552252 -0.806981 0.209284 255 255 255 255 
-0.094421 0.00896888 -0.0414545 -0.603977 0.540434 -0.585784 255 255 255 255 
-0.0699967 -0.0967082 -0.0970821 -0.643382 -0.756923 0.114575 255 255 255 255 
-0.0621259 -0.0854733 -0.172198 -0.977501 -0.0464089 -0.205762 255 255 255 255 
-0.0917038 0.0464231 0.256839 -0.705309 -0.249532 0.663531 255 255 255 255 
-0.0150669 -0.0414981 -0.130408 -0.0881912 0.685571 -0.722644 255 255 255 255 
0.0466793 -0.232662 -0.337378 0.0373099 -0.878282 0.476684 255 255 255 255 
-0.0570276 -0.113382 -0.167066 -0.957141 -0.274689 -0.0918038 255 255 255 255 
0.0488838 -0.203872 -0.302964 0.99648 0.0745069 0.0384296 255 255 255 255 
0.0778153 0.191247 0.220762 0.840193 0.52549 -0.133926 255 255 255 255 
-0.0776418 -0.0617377 -0.122457 -0.486726 0.582605 -0.650899 255 255 255 255 
0.0231716 -0.0723125 0.178975 0.16569 -0.868601 0.46699 255 255 255 255 
-0.0808679 -0.105352 0.107206 -0.859339 -0.370496 -0.352519 255 255 255 255 
-0.0118414 -0.220336 -0.31109 -0.026943 -0.878232 0.477475 255 255 255 255 
0.0426212 -0.221514 -0.334949 0.164575 0.788113 -0.593121 255 255 255 255 
0.0288988 -0.0902862 0.139523 0.0876919 -0.907994 0.409703 255 255 255 255 
-0.0984435 -0.0686232 0.0528097 -0.502775 -0.860167 0.0856123 255 255 255 255 
0.0306166 -0.103883 -0.0349811 0.221964 -0.966948 0.125469 255 255 255 255 
0.00193588 -0.146162 -0.246521 -0.0280651 0.778482 -0.627039 255 255 255 255 
-0.118322 0.0224823 0.210722 -0.80096 -0.316666 0.50812 255 255 255 255 
-0.0458267 -0.252893 -0.374777 -0.0635166 -0.873547 0.482577 255 255 255 255 
0.0608415 -0.0920238 0.0377667 0.347625 -0.937027 0.0337203 255 255 255 255 
-0.0799367 -0.217995 0.18299 0.9898 0.140679 0.0224956 255 255 255 255 
-0.12241 -0.00779607 0.173814 -0.656256 -0.605626 0.45005 255 255 255 255 
-0.0310491 -0.105965 -0.0478582 -0.252076 -0.955242 0.154827 255 255 255 255 
0.0720597 -0.085928 -0.00754669 0.377672 -0.923715 0.0641464 255 255 255 255 
0.0120777 0.135632 0.0599086 0.0678331 0.817919 -0.571321 255 255 255 255 
0.142044 0.0565164 0.105912 0.963037 0.246216 -0.109257 255 255 255 255 
-0.00836448 0.148587 0.077104 -0.0545886 0.840388 -0.539229 255 255 255 255 
-0.0187948 -0.0524807 0.223232 -0.133789 -0.80235 0.581666 255 255 255 255 
0.0710769 -0.240441 0.106507 -0.15045 -0.974242 0.16798 255 255 255 255 
-0.120658 -0.0454603 0.0994865 -0.622328 -0.746197 0.236428 255 255 255 255 
-0.134016 -0.236097 0.220014 -0.394612 -0.849767 -0.349538 255 255 255 255 
-0.0585357 0.0271787 0.27748 -0.475713 -0.384291 0.791213 255 255 255 255 
0.055345 0.114593 0.303454 0.558502 -0.0297181 0.82897 255 255 255 255 
-0.0785009 -0.228073 0.183115 0.990023 0.139475 0.0200301 255 255 255 255 
-0.129606 0.0886986 0.118378 -0.892484 0.428718 -0.140258 255 255 255 255 
0.072445 0.206842 0.242964 0.893649 0.446018 0.0495916 255 255 255 255 
0.11234 0.123797 0.181862 0.878504 0.473084 0.0664913 255 255 255 255 
-0.128852 -0.0432218 0.021156 -0.967484 -0.12903 -0.217545 255 255 255 255 
-0.108632 -0.0412597 0.135865 -0.557091 -0.746081 0.36471 255 255 255 255 
-0.0596914 0.203038 0.297537 -0.878651 0.14993 0.453315 255 255 255 255 
-0.0414516 0.255114 0.253585 -0.739123 0.672536 -0.0373048 255 255 255 255 
-0.0655517 0.217228 0.237799 -0.862133 0.504457 -0.0474271 255 255 255 255 
0.122411 0.052558 0.0406778 0.796915 0.448606 -0.404573 255 255 255 255 
-0.0754682 0.192793 0.236668 -0.897092 0.441776 0.00772356 255 255 255 255 
0.0846673 0.1139 0.0660908 0.555627 0.69354 -0.458564 255 255 255 255 
-0.0120158 0.0134869 0.287294 -0.0805838 -0.477638 0.874853 255 255 255 255 
0.0546762 -0.122054 0.0979715 -0.994747 -0.102323 -0.00304472 255 255 255 255 
-0.141045 0.0197962 0.149588 -0.967206 -0.137177 0.213765 255 255 255 255 
-0.0981372 0.121237 0.0977472 -0.670679 0.664695 -0.329197 255 255 255 255 
0.0401257 0.207269 0.17865 0.481153 0.707902 -0.517075 255 255 255 255 
0.112169 0.114833 0.20999 0.911851 0.347948 0.217854 255 255 255 255 
0.077616 -0.0275185 -0.0909624 0.600694 0.53937 -0.590125 255 255 255 255 
0.0962364 -0.0741673 -0.034666 0.462605 -0.884068 0.0664835 255 255 255 255 
0.0226659 -0.196416 -0.305769 0.115276 0.795312 -0.595139 255 255 255 255 
0.0762696 -0.157988 0.131273 0.185475 0.569381 0.800878 255 255 255 255 
-0.0877065 0.0255093 -0.0322458 -0.571952 0.57081 -0.589107 255 255 255 255 
0.0374778 0.216255 0.184496 0.504133 0.698647 -0.507683 255 255 255 255 
0.0246972 -0.0856505 -0.173964 0.182401 0.713031 -0.676991 255 255 255 255 
0.0851181 -0.061703 0.137986 0.531101 -0.761818 0.370897 255 255 255 255 
0.0700507 0.161027 0.281131 0.812221 0.127326 0.569284 255 255 255 255 
-0.143971 0.000571806 0.0893334 -0.99712 0.00422439 -0.0757162 255 255 255 255 
0.00946048 -0.230247 -0.34898 0.0502308 0.674116 -0.736916 255 255 255 255 
-0.113487 0.0102342 0.209034 -0.717829 -0.449195 0.531926 255 255 255 255 
0.037385 -0.0866748 -0.177803 0.384524 0.685765 -0.617955 255 255 255 255 
0.101228 -0.0497001 0.132251 0.576815 -0.74625 0.332258 255 255 255 255 
0.0982671 0.0116467 -0.035206 0.676473 0.487707 -0.551839 255 255 255 255 
-0.0826975 -0.0373032 -0.0952098 -0.574665 0.547161 -0.608584 255 255 255 255 
0.105629 -0.0672791 0.0271101 0.532061 -0.845216 0.0502133 255 255 255 255 
-0.00933745 -0.193118 -0.30317 -0.0352988 0.793576 -0.607446 255 255 255 255 
-0.00919507 -0.103944 0.00837175 -0.0800368 -0.995607 0.0485929 255 255 255 255 
0.12107 0.110992 0.175245 0.896715 0.436107 0.0755806 255 255 255 255 
-0.0884189 0.0627373 0.266285 -0.686547 -0.200038 0.699026 255 255 255 255 
0.0978641 -0.019411 -0.0614964 0.70032 0.447981 -0.555756 255 255 255 255 
-0.0537512 -0.0465235 -0.132658 0.415538 0.666126 -0.619359 255 255 255 255 
-0.0385775 0.251662 0.225434 -0.681203 0.70279 -0.205059 255 255 255 255 
0.0538646 0.205183 0.189509 0.592393 0.669438 -0.448245 255 255 255 255 
0.0179415 -0.18751 -0.249165 0.0681882 -0.898922 0.432769 255 255 255 255 
0.0569931 -0.0896269 -0.205391 0.743533 0.587301 -0.319744 255 255 255 255 
0.122647 0.110091 0.141393 0.85286 0.511685 -0.103964 255 255 255 255 
0.137558 0.0699241 0.10677 0.919199 0.359499 -0.160727 255 255 255 255 
-0.072554 -0.0829505 0.1167 -0.459639 -0.792741 0.400368 255 255 255 255 
0.0182492 -0.23759 -0.343691 0.00806145 -0.881209 0.472657 255 255 255 255 
-0.133794 0.0277738 0.181666 -0.922202 -0.171216 0.34674 255 255 255 255 
-0.0975734 -0.0707724 0.0148645 -0.402689 -0.912268 0.0748858 255 255 255 255 
0.00503079 0.169116 0.326395 -0.161938 -0.865855 0.473362 255 255 255 255 
-0.0406573 0.113723 0.0392838 -0.205839 0.775669 -0.596631 255 255 255 255 
0.133482 0.0396171 0.0505297 0.880692 0.337551 -0.332326 255 255 255 255 
0.139984 0.0652837 0.160089 0.973521 0.195827 0.117935 255 255 255 255 
0.0949189 0.126158 0.100119 0.648429 0.680041 -0.342177 255 255 255 255 
0.110505 -0.231064 0.198473 -0.439363 -0.847204 0.298672 255 255 255 255 
-0.0136698 -0.0285079 -0.118945 -0.0853291 0.690066 -0.718699 255 255 255 255 
-0.0901085 -0.0383493 0.173095 -0.503547 -0.732185 0.458634 255 255 255 255 
-0.0444558 0.250403 0.242502 -0.73757 0.668261 -0.0970462 255 255 255 255 
0.0142552 -0.164055 -0.265969 0.146323 0.781283 -0.606784 255 255 255 255 
-0.137688 0.0172946 0.162047 -0.953144 -0.158166 0.257874 255 255 255 255 
-0.0201341 0.052359 0.303632 -0.16081 -0.326959 0.931256 255 255 255 255 
0.11805 -0.0463516 -0.0406913 0.880826 0.180958 -0.437493 255 255 255 255 
0.0809088 -0.0872369 -0.0961725 0.771907 -0.63573 0.00240997 255 255 255 255 
-0.0642421 0.0380535 0.278344 -0.524302 -0.331001 0.784567 255 255 255 255 
0.0508471 -0.124033 -0.13572 0.612084 -0.771966 0.171528 255 255 255 255 
0.100985 0.00258201 0.218563 0.616428 -0.545807 0.567548 255 255 255 255 
-0.0300849 -0.0917395 0.13393 -0.174769 -0.907178 0.382731 255 255 255 255 
-0.0622437 -0.131905 0.10902 0.974699 -0.100719 0.199544 255 255 255 255 
-0.101004 -0.0665659 0.0581383 -0.54308 -0.83515 0.087117 255 255 255 255 
-0.0786018 -0.0681635 -0.116519 -0.938123 0.0699582 -0.339161 255 255 255 255 
0.0866922 -0.0503685 0.156898 0.494355 -0.760766 0.420533 255 255 255 255 
-0.0503716 0.244311 0.247472 -0.772602 0.631885 -0.0617131 255 255 255 255 
0.0630272 -0.128261 0.0952932 -0.276672 -0.454188 -0.846856 255 255 255 255 
-0.030704 0.0160106 0.2849 -0.242597 -0.458582 0.854897 255 255 255 255 
0.0659307 -0.0444319 -0.118169 0.574372 0.57457 -0.583066 255 255 255 255 
-0.108379 0.0951189 0.0688199 -0.719861 0.583411 -0.376074 255 255 255 255 
0.0883522 -0.0603461 -0.102266 0.746247 0.415607 -0.519987 255 255 255 255 
-0.0434645 -0.23617 -0.344236 -0.0715909 -0.872303 0.483696 255 255 255 255 
-0.0515797 -0.0535226 -0.138461 0.999128 -0.0402251 0.0112351 255 255 255 255 
-0.0608456 -0.008308 -0.0850595 -0.388705 0.649214 -0.653781 255 255 255 255 
-0.138058 0.0564637 0.168687 -0.979123 0.106461 0.173158 255 255 255 255 
-0.0741697 0.194389 0.255064 -0.919983 0.36181 0.150749 255 255 255 255 
-0.0569238 -0.0904544 0.00407276 -0.305972 -0.95042 0.0555192 255 255 255 255 
-0.0533094 0.156474 0.300907 -0.660828 -0.0456826 0.749146 255 255 255 255 
0.0180762 0.142824 0.0705643 0.104205 0.828899 -0.549606 255 255 255 255 
0.0767849 -0.0433833 -0.105741 0.629964 0.528269 -0.569277 255 255 255 255 
0.0290853 -0.242991 -0.354683 0.0222719 -0.880363 0.473778 255 255 255 255 
-0.0533565 -0.0872433 0.130787 -0.335923 -0.79499 0.50512 255 255 255 255 
0.0356171 -0.14997 -0.236552 0.484519 0.67606 -0.555143 255 255 255 255 
0.0811817 0.0943524 0.0361259 0.505114 0.678951 -0.532808 255 255 255 255 
0.123571 0.0830774 0.084423 0.809504 0.502696 -0.303317 255 255 255 255 
0.0305214 0.259119 0.300324 0.60603 0.781831 0.146522 255 255 255 255 
-0.0226793 -0.0646585 -0.149927 -0.0997279 0.692368 -0.714619 255 255 255 255 
0.0349134 -0.170501 -0.229954 0.872286 -0.464355 0.153267 255 255 255 255 
-0.0491418 0.197633 0.178206 -0.476145 0.705548 -0.524869 255 255 255 255 
-0.0221846 -0.179443 -0.283825 -0.112826 0.789684 -0.60305 255 255 255 255 
0.130884 0.0351207 0.0398176 0.857875 0.357483 -0.36913 255 255 255 255 
0.032148 -0.16023 -0.252439 0.354857 0.736109 -0.576386 255 255 255 255 
0.00368484 0.271262 0.25251 -0.0813466 0.981943 -0.170796 255 255 255 255 
0.112117 -0.00634294 -0.031723 0.787512 0.365336 -0.496341 255 255 255 255 
0.0404848 -0.181722 -0.271697 0.973679 -0.20793 0.0933506 255 255 255 255 
0.12683 0.0727449 0.0763623 0.825391 0.469295 -0.313834 255 255 255 255 
0.0177595 -0.0680455 0.190912 0.134929 -0.864143 0.484821 255 255 255 255 
-0.0590288 -0.121491 0.116168 0.976474 -0.214351 0.0235036 255 255 255 255 
0.0891894 0.149638 0.25491 0.898771 0.284699 0.333401 255 255 255 255 
-0.0185291 -0.083831 0.156366 -0.126247 -0.891818 0.434421 255 255 255 255 
0.0595288 -0.0388543 0.215657 0.387842 -0.738002 0.552206 255 255 255 255 
-0.00251055 0.27104 0.2552 -0.113258 0.982079 -0.150642 255 255 255 255 
0.0303038 0.105475 0.314537 0.274459 -0.116572 0.954507 255 255 255 255 
0.0670774 -0.0279294 -0.101614 0.564502 0.568088 -0.598843 255 255 255 255 
0.049875 -0.0806832 -0.20638 -0.978703 0.16824 -0.117625 255 255 255 255 
0.11433 0.0803271 0.0617132 0.742487 0.543228 -0.39194 255 255 255 255 
0.0162326 0.177379 0.130091 0.13827 0.850588 -0.507328 255 255 255 255 
0.0491387 -0.105923 -0.188045 0.418283 0.673851 -0.609068 255 255 255 255 
0.0601814 -0.113908 -0.127208 0.622293 -0.768139 0.150711 255 255 255 255 
-0.0635112 -0.106176 -0.114975 -0.74874 -0.65775 0.0821779 255 255 255 255 
-0.00423971 -0.1912 -0.254678 -0.00465018 -0.89849 0.438969 255 255 255 255 
0.0612445 -0.107365 -0.177512 0.816912 0.403865 -0.411761 255 255 255 255 
-0.0590392 0.0157169 0.271304 -0.469257 -0.435018 0.768477 255 255 255 255 
-0.0362154 0.126777 0.05394 -0.190535 0.796826 -0.573381 255 255 255 255 
-0.0808025 0.0294688 -0.0342512 -0.500151 0.612076 -0.612546 255 255 255 255 
0.0488029 -0.2522 -0.373684 0.0413469 -0.877039 0.478637 255 255 255 255 
0.0035347 -0.200604 -0.27358 0.025061 -0.890957 0.453395 255 255 255 255 
0.0379381 -0.246032 -0.361207 0.0322419 -0.878952 0.475819 255 255 255 255 
-0.0470208 -0.0833024 -0.162976 0.99608 -0.00867425 -0.0880352 255 255 255 255 
0.00751186 0.27222 0.264354 -0.0915726 0.993873 -0.061895 255 255 255 255 
0.120753 -0.234588 0.206862 -0.489712 -0.816351 0.30619 255 255 255 255 
0.0384516 0.198351 0.325473 0.780139 -0.15265 0.606697 255 255 255 255 
-0.00776341 -0.16483 -0.191709 -0.0687947 -0.928061 0.366019 255 255 255 255 
0.0634459 0.224441 0.266121 0.87668 0.470061 0.102351 255 255 255 255 
0.102746 -0.230736 0.174282 0.802279 -0.478804 -0.356505 255 255 255 255 
0.12405 0.0939978 0.104682 0.822898 0.513458 -0.24331 255 255 255 255 
-0.117367 -0.0544895 0.0680978 -0.599358 -0.789635 0.131324 255 255 255 255 
-0.0681741 -0.0883351 -0.0433572 -0.409746 -0.90639 0.102785 255 255 255 255 
0.0527855 -0.0746918 -0.221882 -0.975535 0.181626 -0.123867 255 255 255 255 
-0.0690046 -0.0071277 0.247686 -0.495395 -0.546315 0.675369 255 255 255 255 
-0.013503 -0.197992 -0.309042 -0.0533988 0.79315 -0.60668 255 255 255 255 
0.0679266 0.0863064 0.01596 0.384828 0.706695 -0.593708 255 255 255 255 
-0.0282556 0.134612 0.314398 -0.41538 -0.112616 0.90265 255 255 255 255 
0.0945172 0.00476695 0.229904 0.607603 -0.515814 0.603949 255 255 255 255 
0.0724751 0.143595 0.283062 0.771254 0.106472 0.62756 255 255 255 255 
-0.026342 0.0406886 -0.0469235 -0.139372 0.718026 -0.681919 255 255 255 255 
0.0747545 -0.0489961 0.177619 0.44377 -0.767785 0.462142 255 255 255 255 
0.0995441 0.131016 0.238119 0.909322 0.309559 0.27804 255 255 255 255 
-0.014482 -0.0856573 -0.173138 -0.0601832 0.718897 -0.692507 255 255 255 255 
0.0223825 -0.0784242 0.166122 0.148836 -0.879415 0.452192 255 255 255 255 
-0.139607 0.0556183 0.105681 -0.963942 0.243439 -0.107486 255 255 255 255 
0.104472 0.0603505 0.0210824 0.684691 0.541019 -0.48836 255 255 255 255 
-0.062715 0.00216458 0.260116 -0.477148 -0.499638 0.722974 255 255 255 255 
-0.0164065 -0.0997942 0.0949422 -0.13337 -0.981433 0.13785 255 255 255 255 
0.0942246 0.153378 0.226932 0.905443 0.401966 0.136367 255 255 255 255 
0.0230053 -0.113549 -0.0618382 0.208318 -0.956522 0.204131 255 255 255 255 
0.0337375 -0.101809 0.088238 -0.0361864 -0.994398 0.0993182 255 255 255 255 
-0.00929634 0.270908 0.267019 -0.087071 0.995433 -0.0391252 255 255 255 255 
-0.0302696 0.173486 0.130737 -0.269977 0.831577 -0.485379 255 255 255 255 
-0.0921185 -0.0614344 -0.0887679 -0.895191 0.151152 -0.419269 255 255 255 255 
0.0875429 0.168567 0.213713 0.856321 0.5119 -0.0683583 255 255 255 255 
0.111988 -0.0342993 -0.0495334 0.864166 0.210811 -0.456921 255 255 255 255 
-0.06533 0.0761544 0.289532 -0.553155 -0.183583 0.812599 255 255 255 255 
0.0697632 -0.157233 0.108505 -0.268221 -0.45305 -0.850178 255 255 255 255 
0.125976 0.0607213 0.0577259 0.816756 0.450025 -0.361091 255 255 255 255 
-0.0969017 0.0103533 -0.0374705 -0.626539 0.52611 -0.575028 255 255 255 255 
-0.0886786 0.160714 0.20002 -0.859026 0.511178 -0.0277756 255 255 255 255 
-0.0783016 -0.0882243 -0.0959435 -0.72102 -0.690376 0.0592514 255 255 255 255 
0.0321274 -0.0333158 0.244912 0.233264 -0.71477 0.659312 255 255 255 255 
0.14676 0.0183342 0.098129 0.999196 -0.016533 -0.0365368 255 255 255 255 
0.0801152 -0.203035 0.140211 0.952275 0.245884 -0.180871 255 255 255 255 
-0.0075658 -0.107899 -0.0346862 -0.0855935 -0.987479 0.13251 255 255 255 255 
0.0937641 -0.0753439 -0.0209497 0.456304 -0.887875 0.0588651 255 255 255 255 
-0.0622111 0.226882 0.25973 -0.87458 0.47939 0.0727696 255 255 255 255 
0.0914354 0.152376 0.172372 0.779415 0.61201 -0.134003 255 255 255 255 
0.0430517 0.0985521 0.0201558 0.213516 0.755346 -0.619567 255 255 255 255 
-0.0741108 0.0577151 0.277766 -0.602135 -0.238464 0.761951 255 255 255 255 
0.0975766 -0.0583545 -0.0815052 0.939798 -0.200294 -0.27688 255 255 255 255 
-0.138115 -0.0148996 0.0507424 -0.982717 -0.0142343 -0.184568 255 255 255 255 
-0.0289001 -0.00866633 0.270056 -0.228811 -0.576537 0.784379 255 255 255 255 
-0.0759548 -0.0260225 0.217496 -0.495518 -0.655703 0.569663 255 255 255 255 
-0.0780576 0.185376 0.22428 -0.893863 0.44834 -4.51694e-005 255 255 255 255 
-0.0916196 0.141481 0.135988 -0.670576 0.697348 -0.253047 255 255 255 255 
-0.1436 0.0103957 0.0857442 -0.992417 0.0566574 -0.109083 255 255 255 255 
-0.0679053 -0.0851601 0.0187002 -0.337503 -0.939638 0.0563245 255 255 255 255 
-0.0919014 0.154764 0.196258 -0.864987 0.501789 0.00225249 255 255 255 255 
0.0925003 0.133421 0.256527 0.865418 0.192475 0.462607 255 255 255 255 
0.0673072 0.00279623 0.257005 0.486275 -0.51247 0.707751 255 255 255 255 
-0.122159 0.0921068 0.210942 -0.936726 0.232271 0.261907 255 255 255 255 
-0.138215 0.0617381 0.161196 -0.978255 0.170918 0.117493 255 255 255 255 
-0.141086 0.0313167 0.155415 -0.985158 -0.015422 0.170954 255 255 255 255 
0.121945 -0.0255753 -0.0205494 0.938712 0.0418615 -0.342152 255 255 255 255 
0.0123313 -0.166805 -0.196116 0.112878 -0.925344 0.361935 255 255 255 255 
0.054803 0.164838 0.130202 0.42436 0.807059 -0.410579 255 255 255 255 
-0.0824382 0.13913 0.272706 -0.852808 0.182247 0.489392 255 255 255 255 
-0.142463 0.0199208 0.141809 -0.984455 -0.0811801 0.155749 255 255 255 255 
-0.0242862 0.261768 0.304749 -0.354937 0.889483 0.287818 255 255 255 255 
-0.140448 0.057848 0.143981 -0.980726 0.189005 0.0495381 255 255 255 255 
0.109489 0.0962245 0.0762884 0.710448 0.594098 -0.377241 255 255 255 255 
-0.049355 -0.11444 -0.210883 -0.971469 -0.199198 -0.128716 255 255 255 255 
0.00589134 -0.0448846 -0.134932 0.02101 0.692157 -0.721441 255 255 255 255 
-0.0302746 0.178398 0.139996 -0.279542 0.816166 -0.505696 255 255 255 255 
0.0755323 0.0963863 0.0339049 0.438671 0.705206 -0.557003 255 255 255 255 
-0.0717105 -0.0886162 -0.137764 -0.95072 0.0648651 -0.303189 255 255 255 255 
-0.13862 0.0664951 0.128803 -0.964409 0.262504 -0.031745 255 255 255 255 
-0.0557963 -0.0910362 0.0448016 -0.313242 -0.948481 0.0475687 255 255 255 255 
-0.0304059 -0.035984 -0.123173 -0.164809 0.680229 -0.714231 255 255 255 255 
0.0375031 -0.194684 -0.299322 0.150707 0.794704 -0.587991 255 255 255 255 
-0.132528 0.0861836 0.137672 -0.939561 0.341543 -0.0239558 255 255 255 255 
-0.00991006 -0.0828658 0.160878 -0.0697806 -0.898095 0.43423 255 255 255 255 
-0.0364731 -0.0682287 0.181207 -0.231957 -0.841216 0.488418 255 255 255 255 
-0.0311375 -0.0955251 0.122745 -0.174577 -0.929663 0.324423 255 255 255 255 
-0.139544 0.0405355 0.0808869 -0.9651 0.200403 -0.168583 255 255 255 255 
-0.122504 -0.0414787 0.10717 -0.620572 -0.73809 0.26479 255 255 255 255 
-0.126056 -0.23494 0.227818 0.419326 -0.883558 0.208546 255 255 255 255 
-0.0851852 -0.0712046 -0.0994085 -0.953808 -0.187092 -0.235047 255 255 255 255 
-0.0646434 -0.0951939 -0.13259 0.866003 -0.477638 0.147987 255 255 255 255 
-0.0795675 -0.220447 0.198343 0.989757 0.142453 0.00936693 255 255 255 255 
0.107227 -0.0412568 0.139961 0.564452 -0.741909 0.36189 255 255 255 255 
0.0709456 -0.193126 0.129622 -0.993866 -0.0706366 -0.0850989 255 255 255 255 
-0.0523055 -0.117687 0.0928581 0.853869 -0.441967 -0.274906 255 255 255 255 
0.00399978 -0.151016 -0.150569 0.0212459 -0.940253 0.339813 255 255 255 255 
0.133096 -0.0380477 0.0588818 0.868819 -0.494932 0.0140103 255 255 255 255 
-0.100057 0.137942 0.215982 -0.903094 0.406294 0.139093 255 255 255 255 
0.0286735 -0.106337 -0.0438956 0.224517 -0.963012 0.148997 255 255 255 255 
-0.0919136 -0.0773304 -0.0698095 -0.518332 -0.850416 0.0901292 255 255 255 255 
0.113859 0.074064 0.230301 0.891068 0.0545397 0.450581 255 255 255 255 
-0.0555995 -0.0962799 -0.204563 -0.965535 -0.22479 -0.131193 255 255 255 255 
-0.138533 0.0668766 0.145701 -0.97247 0.229001 0.0431431 255 255 255 255 
0.119627 0.115681 0.161871 0.87188 0.489688 -0.00560961 255 255 255 255 
0.0430967 -0.129643 -0.13156 0.565528 -0.800906 0.196792 255 255 255 255 
0.133947 0.0655634 0.0851133 0.867934 0.418016 -0.268239 255 255 255 255 
0.00102756 -0.182977 -0.236431 0.00975661 -0.908575 0.417608 255 255 255 255 
0.0550162 0.240267 0.258328 0.79306 0.609092 -0.00787238 255 255 255 255 
-0.067048 0.208225 0.218691 -0.848936 0.515552 -0.11625 255 255 255 255 
0.0285343 0.26596 0.274232 0.605997 0.794331 0.0425034 255 255 255 255 
-0.107351 -0.0651571 0.0272997 -0.454188 -0.887382 0.0791622 255 255 255 255 
-0.0338015 -0.227778 -0.327553 -0.0711523 -0.87233 0.483712 255 255 255 255 
-0.0443062 0.245047 0.305408 -0.69915 0.639812 0.319108 255 255 255 255 
0.121227 -0.0545696 0.0444907 0.65926 -0.749917 0.0547751 255 255 255 255 
0.0172487 0.0485728 0.303363 0.121263 -0.338605 0.933082 255 255 255 255 
-0.0276622 -0.251299 -0.37397 0.0884302 -0.712727 -0.695845 255 255 255 255 
0.0656475 -0.165728 0.115381 -0.996217 -0.0794508 -0.0352146 255 255 255 255 
0.0296343 -0.103403 -0.029849 0.205585 -0.971867 0.11493 255 255 255 255 
-0.118671 0.00683532 0.197373 -0.693822 -0.513429 0.504977 255 255 255 255 
0.0267775 0.2244 0.184345 0.439557 0.719434 -0.537778 255 255 255 255 
-0.0977582 -0.051287 -0.0751686 -0.892773 0.14282 -0.42727 255 255 255 255 
0.124728 0.0416055 0.209697 0.895849 -0.105308 0.431701 255 255 255 255 
-0.0761999 0.132857 0.283396 -0.752496 0.0730988 0.654527 255 255 255 255 
0.0924332 0.00796639 0.235776 0.610507 -0.489871 0.62234 255 255 255 255 
0.0159852 -0.195422 -0.264612 0.0544409 -0.891742 0.449258 255 255 255 255 
0.0874577 -0.078501 0.0125983 0.446952 -0.893229 0.0487513 255 255 255 255 
0.102581 0.119839 0.238639 0.902977 0.25019 0.349339 255 255 255 255 
-0.054326 -0.0188492 0.24835 -0.398389 -0.612824 0.682446 255 255 255 255 
0.0351542 -0.0406034 0.232954 0.24733 -0.752917 0.609872 255 255 255 255 
0.0944702 -0.215976 0.164657 0.877142 0.4748 -0.0720236 255 255 255 255 
0.0369799 -0.0247234 -0.112991 0.15942 0.693775 -0.702326 255 255 255 255 
-0.0685691 0.000297506 0.25428 -0.505369 -0.505242 0.699523 255 255 255 255 
-0.136534 0.0103512 0.0420858 -0.965709 0.100085 -0.239561 255 255 255 255 
-0.0502085 -0.208517 -0.314714 -0.167541 0.791618 -0.587597 255 255 255 255 
-0.0933509 0.143252 0.242595 -0.911505 0.320367 0.257921 255 255 255 255 
0.0572376 0.0108089 0.269987 0.447152 -0.46958 0.761282 255 255 255 255 
-0.0205843 -0.125052 -0.216038 -0.177868 0.744595 -0.643382 255 255 255 255 
0.0376998 0.0447544 -0.0415013 0.170891 0.712715 -0.680319 255 255 255 255 
-0.0653473 -0.0793797 -0.151059 -0.910431 0.214889 -0.353465 255 255 255 255 
0.102304 0.138685 0.166771 0.807164 0.585238 -0.0773519 255 255 255 255 
0.140109 0.0706514 0.145841 0.96963 0.239599 0.0490853 255 255 255 255 
-0.0408824 0.228139 0.324228 -0.688521 0.0468324 0.723702 255 255 255 255 
0.133674 0.00431358 0.169097 0.907739 -0.280293 0.312163 255 255 255 255 
-0.0116279 -0.10326 0.023902 -0.0943848 -0.994798 0.0383107 255 255 255 255 
-0.035785 -0.185852 -0.287274 -0.4554 0.730822 -0.50844 255 255 255 255 
-0.0365631 0.0946171 0.309519 -0.369311 -0.160756 0.915296 255 255 255 255 
0.023225 0.0556045 0.305043 0.159339 -0.311296 0.93686 255 255 255 255 
-0.010605 -0.185093 -0.242369 -0.0340129 -0.904332 0.425473 255 255 255 255 
0.108274 0.125689 0.20447 0.898727 0.41499 0.141683 255 255 255 255 
0.0915498 -0.0697249 0.0897058 0.628442 -0.769474 0.113888 255 255 255 255 
-0.0729643 0.15062 0.121175 -0.544825 0.763495 -0.346758 255 255 255 255 
-0.132309 0.0832321 0.169148 -0.955984 0.276608 0.0978952 255 255 255 255 
-0.0941499 0.150926 0.186488 -0.83841 0.543601 -0.0395827 255 255 255 255 
0.115826 -0.22397 0.204579 -0.220108 0.909172 0.353496 255 255 255 255 
-0.0977682 0.114362 0.0831913 -0.659564 0.654785 -0.369096 255 255 255 255 
0.0150377 -0.103869 0.0298884 0.0547063 -0.997841 0.0363322 255 255 255 255 
-0.0124165 -0.0769789 0.17365 -0.0895351 -0.882741 0.461251 255 255 255 255 
-0.125568 -0.0020532 0.176766 -0.71329 -0.540302 0.44642 255 255 255 255 
0.123418 -0.0199166 0.156624 0.618296 -0.673956 0.404343 255 255 255 255 
0.0461479 0.0289059 -0.0553645 0.224588 0.696435 -0.681571 255 255 255 255 
0.0238508 -0.232896 -0.335315 0.0164673 -0.880575 0.47362 255 255 255 255 
0.0672725 -0.0909076 0.076449 0.610576 -0.789858 -0.0576259 255 255 255 255 
-0.139246 0.0617069 0.152068 -0.978878 0.188442 0.0792885 255 255 255 255 
0.00203407 -0.104088 0.0299432 -0.0170735 -0.999182 0.0366727 255 255 255 255 
0.00315585 -0.241526 -0.350472 -0.0129385 -0.880949 0.473034 255 255 255 255 
0.0993829 -0.0681615 0.0514902 0.535729 -0.841452 0.0703789 255 255 255 255 
0.0735794 -0.187772 0.15607 0.214279 0.687624 0.693727 255 255 255 255 
0.0149837 -0.064944 -0.154097 0.113611 0.701509 -0.703547 255 255 255 255 
0.0327834 -0.151074 -0.240479 0.391231 0.716462 -0.577598 255 255 255 255 
-0.102273 -0.228535 0.210371 0.413327 -0.888514 0.199257 255 255 255 255 
0.077152 -0.0519802 -0.111524 0.692512 0.477906 -0.540401 255 255 255 255 
0.0744232 0.0239019 0.265706 0.554471 -0.395911 0.731995 255 255 255 255 
0.057995 0.154532 0.294993 0.734519 0.0312703 0.677867 255 255 255 255 
-0.0430007 -0.14967 -0.198502 -0.975081 -0.187749 -0.118187 255 255 255 255 
-0.0614178 0.223838 0.230798 -0.829727 0.548469 -0.103609 255 255 255 255 
0.0742093 -0.0822721 0.114306 0.622285 -0.754674 0.207912 255 255 255 255 
-0.0958296 0.148429 0.190303 -0.855278 0.518145 -0.00506206 255 255 255 255 
0.0239725 -0.102741 0.000162887 0.138226 -0.988602 0.0596671 255 255 255 255 
-0.0770599 -0.213592 0.129289 0.988897 0.132479 0.0673138 255 255 255 255 
-0.129719 0.012012 0.0162704 -0.915425 0.205083 -0.346321 255 255 255 255 
-0.0189742 -0.00698498 -0.0982072 -0.111643 0.702118 -0.703254 255 255 255 255 
-0.0555175 0.113817 0.0443695 -0.281971 0.767043 -0.576314 255 255 255 255 
0.0482273 -0.0577751 -0.173785 -0.962616 0.233255 -0.137704 255 255 255 255 
0.0467231 0.188952 0.311089 0.789647 -0.12517 0.600658 255 255 255 255 
-0.0460044 -0.120625 -0.222838 -0.972758 -0.194153 -0.126674 255 255 255 255 
0.0629892 0.220673 0.22399 0.781965 0.588678 -0.204911 255 255 255 255 
-0.0465048 -0.10027 -0.0486433 -0.363459 -0.921404 0.13752 255 255 255 255 
0.00605705 -0.140776 -0.239839 0.00562382 0.773958 -0.633211 255 255 255 255 
-0.0322502 0.234323 0.19956 -0.314777 0.753541 -0.577141 255 255 255 255 
-0.0137089 0.0286976 -0.0614995 -0.0706608 0.718439 -0.691991 255 255 255 255 
-0.0650089 0.0523732 0.283103 -0.537956 -0.27249 0.797717 255 255 255 255 
0.112744 -0.0636039 0.0126831 0.57113 -0.820252 0.0315894 255 255 255 255 
-0.0486383 0.214119 0.315848 -0.741201 0.0242269 0.670846 255 255 255 255 
-0.0220823 -0.15033 -0.157503 -0.136359 -0.931014 0.338554 255 255 255 255 
0.0190417 0.1513 0.319113 0.0587065 -0.15684 0.985878 255 255 255 255 
-0.0705602 -0.0834578 -0.139085 -0.896048 0.228003 -0.380936 255 255 255 255 
-0.0652932 -0.0978884 -0.0830759 -0.550798 -0.822991 0.13895 255 255 255 255 
0.0231201 -0.103283 -0.0110081 0.138091 -0.987395 0.0773495 255 255 255 255 
-0.131681 0.0789058 0.104613 -0.910296 0.381051 -0.161745 255 255 255 255 
0.0358076 0.091969 0.311332 0.292885 -0.157199 0.943137 255 255 255 255 
-0.140976 0.0540903 0.147017 -0.984764 0.158386 0.0717907 255 255 255 255 
-0.0469561 -0.0963348 -0.174576 -0.178175 0.711679 -0.679534 255 255 255 255 
0.100312 0.142001 0.199957 0.876499 0.47908 0.0472477 255 255 255 255 
-0.0476107 0.00954191 -0.0734989 -0.280114 0.684507 -0.673043 255 255 255 255 
-0.0825368 -0.0782857 0.0598919 -0.459297 -0.884917 0.0772592 255 255 255 255 
-0.135499 0.0477899 0.068698 -0.931352 0.276812 -0.236555 255 255 255 255 
-0.0862742 -0.0764778 0.00730618 -0.371264 -0.92582 0.0708512 255 255 255 255 
0.0310187 -0.0425375 -0.131263 0.163078 0.693604 -0.701654 255 255 255 255 
0.130017 -0.0166904 0.00728645 0.957142 0.0251602 -0.288523 255 255 255 255 
-0.0410694 -0.137276 -0.235827 -0.977213 -0.183657 -0.106421 255 255 255 255 
-0.0808588 -0.08398 -0.0688823 -0.513536 -0.851663 0.104646 255 255 255 255 
0.0159801 -0.182488 -0.237671 0.0737496 -0.905968 0.416872 255 255 255 255 
0.0605653 -0.00368316 -0.0826302 0.373279 0.648518 -0.663391 255 255 255 255 
0.142967 -0.00942068 0.0944091 0.966712 -0.253813 0.0323595 255 255 255 255 
-0.0422682 0.127152 0.0561802 -0.225933 0.794092 -0.564244 255 255 255 255 
-0.0232586 0.257425 0.222292 -0.247016 0.856668 -0.452882 255 255 255 255 
0.090319 0.122913 0.0869203 0.596162 0.69674 -0.398929 255 255 255 255 
0.0840386 -0.0339775 -0.0891806 0.668564 0.485718 -0.563116 255 255 255 255 
-0.0865434 -0.0293581 0.195796 -0.516293 -0.688755 0.508977 255 255 255 255 
0.0901666 0.151521 0.162258 0.727142 0.659437 -0.190806 255 255 255 255 
0.109068 -0.232366 0.222141 -0.21816 0.910232 0.351971 255 255 255 255 
0.081326 -0.0450651 -0.0853927 -0.663089 -0.165296 -0.730062 255 255 255 255 
-0.0236783 -0.102983 -0.0173666 -0.180786 -0.979953 0.0837138 255 255 255 255 
0.0210838 0.108665 0.0273794 0.0928186 0.777133 -0.622454 255 255 255 255 
-0.000627211 -0.193409 -0.304155 0.00304132 0.794357 -0.607444 255 255 255 255 
0.112327 0.0967929 0.226971 0.906621 0.177579 0.382757 255 255 255 255 
0.120782 0.0867717 0.0836692 0.791641 0.522894 -0.316047 255 255 255 255 
-0.0239993 -0.101499 0.0151548 -0.158708 -0.986409 0.042543 255 255 255 255 
-0.0423602 -0.0658417 -0.14644 -0.164079 0.683321 -0.711443 255 255 255 255 
-0.0270871 -0.237191 -0.343892 -0.0547933 -0.875721 0.479699 255 255 255 255 
-0.122259 0.10832 0.168577 -0.898143 0.439289 0.0191128 255 255 255 255 
0.0675036 -0.0844801 -0.140189 -0.931708 -0.337914 0.133173 255 255 255 255 
-0.0225215 -0.044034 0.235424 -0.151279 -0.764669 0.626416 255 255 255 255 
0.041345 0.14272 0.309316 0.618214 -0.0290972 0.785471 255 255 255 255 
0.0419817 -0.203021 -0.30929 0.171722 0.796722 -0.579436 255 255 255 255 
0.103138 0.137233 0.196229 0.877874 0.474988 0.0610118 255 255 255 255 
0.0247553 -0.202205 -0.313342 0.116961 0.795018 -0.595203 255 255 255 255 
0.028158 -0.212075 -0.326161 0.133525 0.790715 -0.597445 255 255 255 255 
-0.0818414 0.0885335 0.0280749 -0.476003 0.679066 -0.55883 255 255 255 255 
-0.0503832 0.211445 0.192226 -0.524522 0.683798 -0.507244 255 255 255 255 
0.0852594 -0.0415456 -0.0936069 0.679882 0.480041 -0.554366 255 255 255 255 
-0.11261 -0.00560974 0.191805 -0.636739 -0.590155 0.496267 255 255 255 255 
0.144906 0.0493983 0.124831 0.987956 0.154666 -0.00464387 255 255 255 255 
-0.0629281 -0.0912011 -0.0439787 -0.403528 -0.908484 0.108729 255 255 255 255 
-0.123551 -0.0506191 0.0626295 -0.601626 -0.788644 0.126835 255 255 255 255 
0.105396 0.08788 0.244083 0.87288 0.0798283 0.481361 255 255 255 255 
-0.0025286 -0.0952972 0.127603 -0.0740946 -0.949883 0.303696 255 255 255 255 
-0.0432236 -0.184906 -0.274911 -0.674694 0.624308 -0.393735 255 255 255 255 
0.0739991 -0.100001 -0.121879 0.630086 -0.765139 0.132491 255 255 255 255 
-0.0332643 -0.0154473 -0.103882 -0.196675 0.689939 -0.696637 255 255 255 255 
-0.0771664 -0.217264 0.138247 0.98933 0.12761 0.0703048 255 255 255 255 
-0.116752 0.0139398 -0.0077637 -0.773998 0.407091 -0.484979 255 255 255 255 
0.0198176 0.0252326 0.292783 0.137978 -0.42595 0.894164 255 255 255 255 
0.11135 0.126656 0.172809 0.864176 0.502563 0.0251109 255 255 255 255 
0.0971013 0.147989 0.202383 0.873857 0.48537 0.0281045 255 255 255 255 
-0.0761517 -0.16019 0.125977 0.997923 -0.00532848 0.0641999 255 255 255 255 
-0.0667689 -0.0903431 0.115663 -0.383938 -0.782228 0.490622 255 255 255 255 
-0.121877 0.0128739 0.197951 -0.744132 -0.447414 0.496073 255 255 255 255 
0.143917 0.049828 0.144813 0.990231 0.0403744 0.133464 255 255 255 255 
0.0126344 -0.179161 -0.285015 0.0917053 0.791524 -0.604219 255 255 255 255 
0.0119617 0.124027 0.0450473 0.0579454 0.799568 -0.597774 255 255 255 255 
0.0414258 0.0796038 0.307009 0.321346 -0.201334 0.925312 255 255 255 255 
-0.00250415 -0.181397 -0.232932 -0.00354753 -0.910481 0.413535 255 255 255 255 
-0.0386297 0.122024 0.048721 -0.202204 0.788402 -0.580978 255 255 255 255 
0.0439641 -0.242401 -0.355043 0.0350986 -0.878428 0.476585 255 255 255 255 
-0.0237666 0.0449256 0.299884 -0.21711 -0.346874 0.912437 255 255 255 255 
0.078025 -0.0851065 -0.0537548 0.45016 -0.886784 0.10474 255 255 255 255 
0.114587 0.0698419 0.0480299 0.741839 0.523143 -0.41952 255 255 255 255 
0.0760681 0.0600298 0.280242 0.637961 -0.198668 0.744001 255 255 255 255 
0.0102722 -0.167265 -0.270738 0.106512 0.786353 -0.608527 255 255 255 255 
-0.115882 -0.0609733 0.0220002 -0.463896 -0.882324 0.0794082 255 255 255 255 
-0.0220066 0.208438 0.171896 -0.313267 0.735221 -0.601093 255 255 255 255 
0.120627 0.00493492 -0.00780656 0.833024 0.327909 -0.445587 255 255 255 255 
-0.0186624 0.192901 0.361644 -0.317876 -0.855087 0.409611 255 255 255 255 
-0.0412945 -0.144429 -0.22101 -0.97758 -0.179159 -0.110631 255 255 255 255 
0.0123221 0.127772 0.318715 0.0836163 -0.112998 0.990071 255 255 255 255 
0.0325021 0.0383666 -0.0489282 0.143049 0.713287 -0.686118 255 255 255 255 
0.111835 0.126463 0.153158 0.81579 0.571147 -0.0909767 255 255 255 255 
0.0108447 -0.140986 -0.124451 0.0854369 -0.941495 0.326018 255 255 255 255 
-0.0950008 -0.0505478 0.139965 -0.517806 -0.761344 0.39017 255 255 255 255 
0.0863749 -0.0771207 -0.105042 0.937335 0.00547777 -0.348386 255 255 255 255 
0.134143 0.0837322 0.170083 0.950977 0.281464 0.128147 255 255 255 255 
0.0706381 -0.138096 0.104331 0.621818 -0.293045 -0.726269 255 255 255 255 
-0.0627752 -0.10744 -0.144016 -0.883986 -0.467488 -0.00479556 255 255 255 255 
-0.0314076 0.0401683 -0.0463679 -0.164969 0.715093 -0.679285 255 255 255 255 
-0.100108 0.0704487 0.024987 -0.607343 0.599089 -0.521753 255 255 255 255 
0.0103138 -0.0129569 0.271682 0.0846571 -0.60708 0.790118 255 255 255 255 
-0.0570276 0.213401 0.200846 -0.565456 0.674455 -0.474731 255 255 255 255 
-0.0327188 0.263982 0.263265 -0.611956 0.790622 -0.0206626 255 255 255 255 
-0.0647043 -0.0836461 0.125153 -0.40904 -0.80417 0.431273 255 255 255 255 
-0.0148442 0.14652 0.318751 -0.219715 -0.157761 0.962724 255 255 255 255 
-0.144324 0.0353771 0.122218 -0.995574 0.0936454 0.00798144 255 255 255 255 
0.0502284 0.22435 0.204169 0.625544 0.66961 -0.400397 255 255 255 255 
0.102927 0.131501 0.130589 0.709776 0.662566 -0.239216 255 255 255 255 
-0.0359156 0.179235 0.320598 -0.617846 -0.111127 0.778407 255 255 255 255 
-0.0657937 0.073711 0.00275405 -0.360693 0.697143 -0.619591 255 255 255 255 
-0.0821727 -0.0349239 0.192839 -0.492398 -0.711281 0.50162 255 255 255 255 
0.109982 -0.0601578 0.0610463 0.595797 -0.798049 0.0902443 255 255 255 255 
-0.11298 0.0753115 0.0478889 -0.712983 0.551796 -0.432639 255 255 255 255 
-0.0649489 -0.03361 -0.107414 -0.430672 0.624705 -0.651356 255 255 255 255 
-0.0738295 0.060827 -0.00666512 -0.428017 0.664537 -0.612529 255 255 255 255 
0.0915975 -0.0772411 -0.0493008 0.472043 -0.877854 0.0809161 255 255 255 255 
0.0474358 -0.0970589 0.0225763 0.262143 -0.964213 0.0396874 255 255 255 255 
-0.0698856 0.155612 0.28505 -0.784885 0.0824508 0.614132 255 255 255 255 
-0.0499362 -0.132864 -0.150216 -0.886826 -0.462102 -0.000987551 255 255 255 255 
0.11908 0.0270751 0.00873069 0.791363 0.409794 -0.453666 255 255 255 255 
-0.0222195 0.00748945 -0.082949 -0.126678 0.708034 -0.694723 255 255 255 255 
0.0347217 0.205358 0.332805 0.781378 -0.151658 0.60535 255 255 255 255 
0.0820358 -0.0778288 0.0973554 0.636851 -0.763171 0.109505 255 255 255 255 
0.0441713 -0.215013 -0.325558 0.170016 0.793773 -0.583969 255 255 255 255 
0.0415152 0.112997 0.0379732 0.206283 0.775169 -0.597126 255 255 255 255 
-0.0645941 0.184248 0.178724 -0.548133 0.703232 -0.452786 255 255 255 255 
-0.128316 -0.0188751 0.00211338 -0.961216 -0.0396514 -0.27293 255 255 255 255 
-0.122774 -0.0412239 -0.00875198 -0.955842 -0.107107 -0.273667 255 255 255 255 
0.029585 -0.0997891 0.110463 -0.0494556 -0.97723 0.206341 255 255 255 255 
-0.113303 -0.0457104 0.117128 -0.588321 -0.748991 0.30478 255 255 255 255 
0.051262 0.0237267 -0.0591689 0.269076 0.684567 -0.67747 255 255 255 255 
0.0167015 -0.0253228 0.259845 0.129383 -0.669491 0.731466 255 255 255 255 
-0.00241503 -0.0796062 0.16929 -0.00978404 -0.894586 0.446789 255 255 255 255 
0.0386832 -0.0354443 -0.122963 0.179071 0.692391 -0.698948 255 255 255 255 
-0.0358575 -0.105055 -0.0503969 -0.30441 -0.939856 0.154937 255 255 255 255 
-0.0961326 0.0454778 0.251727 -0.722392 -0.247628 0.645624 255 255 255 255 
0.0901128 0.0863309 0.0349028 0.574244 0.638993 -0.511793 255 255 255 255 
-0.0431962 -0.112369 0.117383 0.873285 -0.423063 -0.241642 255 255 255 255 
0.0705633 0.138103 0.0889946 0.438665 0.777534 -0.450571 255 255 255 255 
-0.0181369 -0.166448 -0.268767 -0.14108 0.784162 -0.604307 255 255 255 255 
0.0240959 0.0422545 -0.0463467 0.0993261 0.719365 -0.687494 255 255 255 255 
0.0446584 -0.125884 -0.122149 0.565006 -0.803189 0.188826 255 255 255 255 
0.124459 0.0910662 0.199278 0.932897 0.228607 0.278283 255 255 255 255 
-0.0170336 0.223035 0.348224 -0.617929 0.53485 0.57628 255 255 255 255 
0.0821953 -0.0785374 0.0629658 0.529199 -0.847535 0.0404094 255 255 255 255 
-0.114571 -0.230844 0.187025 -0.397904 -0.860432 -0.318322 255 255 255 255 
-0.00640093 -0.236749 -0.341625 -0.0268811 -0.879627 0.474904 255 255 255 255 
-0.0997405 0.0606973 0.0144607 -0.602425 0.588454 -0.539265 255 255 255 255 
0.0442724 -0.0982425 -0.184254 -0.979523 0.166247 -0.113568 255 255 255 255 
0.138431 0.0709297 0.113256 0.931271 0.341147 -0.127879 255 255 255 255 
0.102976 0.125138 0.233132 0.908584 0.289616 0.300994 255 255 255 255 
0.0149247 -0.0585186 0.211938 0.11906 -0.835042 0.537149 255 255 255 255 
0.00422305 -0.0914341 0.140145 -0.0250986 -0.929865 0.367044 255 255 255 255 
-0.0125355 0.188084 0.147304 -0.151215 0.812953 -0.562353 255 255 255 255 
0.112673 0.0384905 0.229905 0.828889 -0.182063 0.528958 255 255 255 255 
-0.0604733 -0.0176261 -0.0946842 -0.394821 0.645641 -0.653654 255 255 255 255 
-0.0604 -0.0928178 0.0947229 -0.3621 -0.916223 0.17152 255 255 255 255 
0.0434183 -0.0851105 0.14384 0.2169 -0.86142 0.45925 255 255 255 255 
0.0807447 -0.0797858 0.0816843 0.593508 -0.801695 0.0709428 255 255 255 255 
0.0448785 -0.0451964 0.21865 0.299028 -0.774361 0.557626 255 255 255 255 
-0.0573157 0.216731 0.30275 -0.817478 0.0737394 0.57122 255 255 255 255 
-0.02169 0.130778 0.0552042 -0.120994 0.807404 -0.577459 255 255 255 255 
-0.0381353 -0.0873609 0.140207 -0.235591 -0.867924 0.437271 255 255 255 255 
0.135491 0.0776581 0.112587 0.908621 0.388527 -0.153149 255 255 255 255 
0.0137651 0.271623 0.259412 -0.0105728 0.996353 -0.0846729 255 255 255 255 
-0.081612 0.0370754 -0.0259965 -0.505731 0.614215 -0.605785 255 255 255 255 
0.00262151 0.174517 0.122683 -0.00278071 0.860178 -0.509986 255 255 255 255 
-0.0392639 0.141531 0.309889 -0.492345 -0.097876 0.86488 255 255 255 255 
-0.0796437 -0.184673 0.129067 0.992041 0.105417 0.0688624 255 255 255 255 
-0.0734797 0.179039 0.271749 -0.873133 0.159101 0.460787 255 255 255 255 
-0.138029 -0.0255371 0.0544834 -0.984067 -0.035979 -0.17412 255 255 255 255 
-0.0411534 0.0212684 -0.0638072 -0.232976 0.697573 -0.677579 255 255 255 255 
0.133004 -0.0409502 0.0406159 0.899729 -0.431813 -0.0634486 255 255 255 255 
-0.110198 -0.0289734 0.157873 -0.563937 -0.711936 0.418476 255 255 255 255 
-0.0355724 0.129626 0.31144 -0.441062 -0.100021 0.891886 255 255 255 255 
-0.0407346 0.187604 0.319073 -0.658017 -0.10523 0.745614 255 255 255 255 
0.064138 0.19486 0.283879 0.876636 0.104922 0.469576 255 255 255 255 
0.0233942 0.0504066 0.303188 0.172276 -0.330234 0.928044 255 255 255 255 
-0.110527 0.127501 0.171869 -0.856274 0.516381 -0.0120741 255 255 255 255 
-0.0215648 -0.119681 -0.0789569 -0.180086 -0.947965 0.262547 255 255 255 255 
-0.126099 0.0991736 0.174238 -0.928657 0.362839 0.0771002 255 255 255 255 
-0.108559 0.0242415 0.226267 -0.755285 -0.327552 0.567674 255 255 255 255 
-0.0594336 -0.0907346 0.067821 -0.348361 -0.934905 0.0677984 255 255 255 255 
0.0975204 -0.0397976 0.160178 0.52222 -0.741444 0.421363 255 255 255 255 
0.0959975 0.0103002 -0.0393725 0.659667 0.498578 -0.562369 255 255 255 255 
0.104494 0.114253 0.0958001 0.695656 0.635219 -0.3355 255 255 255 255 
0.0374721 0.149878 0.311899 0.609147 -0.0554316 0.791118 255 255 255 255 
-0.0116257 -0.0405078 0.243109 -0.093999 -0.746281 0.65896 255 255 255 255 
0.0989307 0.0605648 0.254978 0.796157 -0.103065 0.596248 255 255 255 255 
0.036583 0.0466342 0.298421 0.310692 -0.328103 0.892087 255 255 255 255 
0.0302907 0.0676149 0.307519 0.237019 -0.257907 0.936646 255 255 255 255 
0.0660175 0.167119 0.150803 0.535732 0.758596 -0.370841 255 255 255 255 
0.0452634 0.246338 0.299993 0.750323 0.64569 0.141776 255 255 255 255 
0.0091491 0.270066 0.24176 -0.0637049 0.948265 -0.311023 255 255 255 255 
-0.000520454 0.0774849 0.314127 0.000862288 -0.235477 0.971879 255 255 255 255 
-0.000152278 0.094362 0.00823878 -0.0189438 0.763401 -0.645647 255 255 255 255 
0.0496764 -0.054003 0.197968 0.325347 -0.801822 0.50123 255 255 255 255 
0.028052 -0.00670015 0.272593 0.221201 -0.571078 0.790531 255 255 255 255 
0.0663029 0.194519 0.279934 0.888058 0.149779 0.434648 255 255 255 255 
0.0189938 0.157598 0.0931553 0.12217 0.852709 -0.507899 255 255 255 255 
-0.04745 0.172146 0.14079 -0.392599 0.798814 -0.455809 255 255 255 255 
-0.0809217 -0.0804347 -0.0249127 -0.379609 -0.921442 0.082715 255 255 255 255 
-0.0468105 -0.0659287 -0.145219 -0.185267 0.679136 -0.710247 255 255 255 255 
0.122456 0.0781055 0.074298 0.794228 0.505315 -0.337429 255 255 255 255 
-0.0163174 0.136642 0.0616558 -0.0953297 0.818176 -0.56701 255 255 255 255 
-0.0229008 -0.190555 -0.255724 -0.047748 -0.89819 0.437007 255 255 255 255 
0.0873966 0.17058 0.223087 0.88641 0.462618 0.0161985 255 255 255 255 
0.085348 0.0808862 0.274828 0.747128 -0.059985 0.661968 255 255 255 255 
-0.130281 -0.0394056 0.0246137 -0.969828 -0.117313 -0.213708 255 255 255 255 
-0.000679634 -0.0993906 0.104894 -0.0976822 -0.979398 0.176743 255 255 255 255 
-0.074353 -0.0836194 -0.0257216 -0.374189 -0.923559 0.0837974 255 255 255 255 
-0.0987615 0.0116005 0.231015 -0.673107 -0.426629 0.604082 255 255 255 255 
0.142501 0.0397558 0.156379 0.980313 -0.0252834 0.195825 255 255 255 255 
0.0535152 -0.0940333 -0.0012352 0.295385 -0.953431 0.0609624 255 255 255 255 
-0.00699827 0.0324176 -0.0580745 -0.039908 0.720468 -0.692339 255 255 255 255 
0.046594 -0.022416 0.249344 0.345375 -0.645668 0.68105 255 255 255 255 
-0.123936 0.0861946 0.0893112 -0.833338 0.484717 -0.265702 255 255 255 255 
0.0517718 -0.12688 -0.149552 0.608859 -0.771816 0.183279 255 255 255 255 
