ply
format ascii 1.0
comment VCGLIB generated
element vertex 631
property float x
property float y
property float z
property float nx
property float ny
property float nz
property uchar red
property uchar green
property uchar blue
property uchar alpha
element face 0
property list uchar int vertex_indices
end_header
-0.0143268 -0.21785 -0.0880914 0.247039 -0.218913 -0.943954 255 255 255 255 
0.179211 -0.225178 -0.0435414 -0.0396233 -0.458698 -0.887709 255 255 255 255 
-0.0961373 0.330133 -0.0392741 -0.556424 0.633403 -0.537766 255 255 255 255 
0.0620546 0.252768 0.0242662 0.115339 -0.232642 0.965699 255 255 255 255 
0.242157 0.256317 -0.0571418 0.551188 0.26739 -0.790376 255 255 255 255 
0.285295 0.155 -0.0135332 0.765152 0.0713554 0.639884 255 255 255 255 
0.0548845 0.341186 0.0163711 0.0124902 0.652494 0.757691 255 255 255 255 
0.0621127 -0.0565713 -0.033882 0.0970734 -0.100767 0.990163 255 255 255 255 
0.15745 0.225018 -0.109991 0.1823 0.16715 -0.968931 255 255 255 255 
-0.0772007 0.282069 -0.0873462 -0.324613 0.340559 -0.882409 255 255 255 255 
-0.0591364 0.181877 0.0429325 0.239147 -0.309577 0.92031 255 255 255 255 
0.0806241 -0.244296 0.0109706 0.155123 0.397814 0.904257 255 255 255 255 
-0.16781 0.229074 0.033373 -0.851079 0.479339 0.214241 255 255 255 255 
0.0622197 -0.080092 -0.0342606 0.0319439 -0.0214468 0.99926 255 255 255 255 
-0.187311 0.120915 -0.0541585 -0.41251 0.0931595 -0.906177 255 255 255 255 
-0.0202128 0.178002 0.0222347 0.221025 -0.318619 0.921754 255 255 255 255 
-0.0719028 -0.154031 -0.0936983 -0.801648 -0.016938 -0.597557 255 255 255 255 
-0.0546585 0.108236 0.00188124 0.0539823 -0.297662 0.953144 255 255 255 255 
0.245341 -0.122257 0.0410875 -0.407518 0.342747 0.846436 255 255 255 255 
-0.0574022 0.100031 -0.109407 -0.606326 -0.0959846 -0.789402 255 255 255 255 
-0.13401 0.100494 0.0531235 0.513647 -0.585579 0.627107 255 255 255 255 
0.168106 0.339178 -0.0672423 0.320777 0.496141 -0.806812 255 255 255 255 
-0.0451212 -0.261835 0.00304445 -0.0411081 0.213176 0.976149 255 255 255 255 
-0.0314741 -0.219765 -0.00652594 -0.0210254 0.191828 0.981203 255 255 255 255 
0.111999 -0.239718 -0.0459529 0.996653 -0.0084616 -0.0813145 255 255 255 255 
0.116393 -0.0311874 -0.0278749 -0.0939634 -0.362063 0.927406 255 255 255 255 
0.10798 0.0164382 -0.00763578 -0.136279 -0.298189 0.944728 255 255 255 255 
-0.0575174 0.169799 -0.111477 -0.21265 0.0450591 -0.976089 255 255 255 255 
0.0216116 0.186131 -0.111363 -0.0425397 0.12513 -0.991228 255 255 255 255 
-0.0614583 0.194894 -0.108674 -0.238064 0.0864995 -0.96739 255 255 255 255 
0.297098 -0.0279446 -0.00529093 0.933323 0.182477 0.30921 255 255 255 255 
0.0828758 0.0398088 -0.120884 0.0846784 -0.130271 -0.987856 255 255 255 255 
0.195638 0.332437 -0.0568464 0.403238 0.452851 -0.795189 255 255 255 255 
-0.016484 -0.0444929 -0.0301625 -0.0970114 -0.135102 0.986071 255 255 255 255 
0.138073 -0.240408 -0.0242835 -0.308058 -0.49109 -0.81482 255 255 255 255 
0.177363 0.217862 0.0401141 -0.0889118 -0.18897 0.97795 255 255 255 255 
0.0513573 -0.246346 -0.0722643 -0.13806 -0.398764 -0.906601 255 255 255 255 
0.0275432 0.179299 0.00809118 0.107319 -0.24721 0.963 255 255 255 255 
0.0131534 0.34345 0.0248913 0.0871029 0.705846 0.702989 255 255 255 255 
-0.299999 0.0607754 -0.00246357 -0.611043 0.762405 0.212988 255 255 255 255 
-0.0570041 0.330539 0.0533135 -0.383344 0.468608 0.795898 255 255 255 255 
0.0634464 0.300578 -0.0975737 -0.039832 0.330582 -0.942936 255 255 255 255 
-0.210613 0.141222 -0.0211135 -0.848504 0.505352 -0.157036 255 255 255 255 
0.220468 0.153947 0.0301372 -0.0470934 -0.131302 0.990223 255 255 255 255 
-0.065958 -0.00385333 -0.0975618 -0.824755 -0.0454321 -0.563662 255 255 255 255 
-0.0755404 -0.213703 -0.0225527 -0.788914 0.148752 0.596228 255 255 255 255 
0.141144 -0.261701 0.00972595 -0.942819 0.0826288 0.322901 255 255 255 255 
0.0329 0.150935 -0.11603 -0.0201404 0.0903336 -0.995708 255 255 255 255 
0.0935203 0.123122 -0.116973 0.0705169 0.0398677 -0.996714 255 255 255 255 
0.276517 -0.166157 0.0916771 -0.248209 0.510089 0.82353 255 255 255 255 
-0.195273 0.11673 0.0492217 -0.267455 0.211302 0.940117 255 255 255 255 
0.169189 -0.271481 -0.0155518 -0.0739851 -0.56315 -0.823036 255 255 255 255 
-0.0521418 -0.197363 -0.099828 -0.0189743 -0.172057 -0.984904 255 255 255 255 
-0.139362 0.194103 0.0556643 -0.36658 0.168611 0.91498 255 255 255 255 
0.166527 0.256821 -0.10142 0.277539 0.242006 -0.929734 255 255 255 255 
-0.0296831 0.368008 -0.00147414 -0.0470696 0.904332 0.424227 255 255 255 255 
0.0289136 -0.176505 -0.0417564 0.780007 -0.14018 -0.609868 255 255 255 255 
0.196449 0.354737 0.00468085 0.416138 0.909271 -0.00750422 255 255 255 255 
-0.0965782 0.225077 0.0641562 0.0566683 -0.12491 0.990548 255 255 255 255 
-0.0450357 -0.0321387 -0.108985 -0.238127 -0.0999584 -0.966076 255 255 255 255 
0.224616 0.282376 0.0506802 0.647576 0.346295 0.678767 255 255 255 255 
0.164064 0.280964 -0.0956523 0.291483 0.301267 -0.907896 255 255 255 255 
0.0573165 -0.149773 -0.0213708 0.0827512 0.170654 0.98185 255 255 255 255 
0.222628 0.317252 -0.0479992 0.465731 0.394543 -0.792106 255 255 255 255 
0.262566 0.225244 0.00847352 0.843033 0.152809 0.515698 255 255 255 255 
0.265687 -0.00380788 -0.0494266 0.493285 -0.210689 -0.843967 255 255 255 255 
0.037902 -0.00626877 -0.0259738 -0.0932488 -0.280979 0.955173 255 255 255 255 
-0.0209815 0.288809 0.0691962 0.279615 -0.172353 0.944516 255 255 255 255 
0.183067 0.335102 0.0483784 0.0236725 0.569531 0.821629 255 255 255 255 
0.0559567 0.330579 0.025173 0.0146055 0.638037 0.769867 255 255 255 255 
0.245998 0.294025 0.0167975 0.88342 0.403327 0.238529 255 255 255 255 
0.00650266 0.021961 -0.115347 -0.0571909 -0.158154 -0.985757 255 255 255 255 
0.0944484 0.0814878 0.00398776 -0.126759 -0.181316 0.975221 255 255 255 255 
0.176869 -0.0860904 -0.0774072 0.326234 -0.140975 -0.934718 255 255 255 255 
-0.0571802 0.0939516 -0.00297691 -0.0117594 -0.275961 0.961097 255 255 255 255 
-0.136657 0.18705 -0.0762673 -0.438585 -0.00510938 -0.898675 255 255 255 255 
0.215582 0.179495 0.0340747 -0.0440174 -0.152559 0.987314 255 255 255 255 
0.175948 0.333066 -0.0676647 0.345654 0.48166 -0.805312 255 255 255 255 
0.154763 0.124248 -0.114077 0.173361 0.0116225 -0.98479 255 255 255 255 
-0.087703 0.216151 0.0614849 0.150488 -0.205705 0.966974 255 255 255 255 
0.185633 0.10662 -0.108312 0.307592 -0.0147459 -0.951404 255 255 255 255 
0.237508 0.210483 0.0388923 0.0395996 -0.153793 0.987309 255 255 255 255 
0.102376 0.236049 -0.109879 0.00432823 0.172956 -0.98492 255 255 255 255 
0.228202 -0.0786621 0.0220132 -0.483111 0.173713 0.858153 255 255 255 255 
0.128655 0.0898985 0.0105756 -0.152389 -0.161167 0.975091 255 255 255 255 
-0.213371 0.0938836 0.055437 -0.529428 0.51504 0.674121 255 255 255 255 
0.0419915 0.341559 0.0179474 0.0430692 0.669714 0.741369 255 255 255 255 
0.0280781 0.156495 -0.115102 -0.0243845 0.0954145 -0.995139 255 255 255 255 
0.0243975 -0.272837 -0.0308474 -0.921562 0.132013 0.365096 255 255 255 255 
-0.00732682 -0.136961 -0.0938943 0.550793 -0.123758 -0.825415 255 255 255 255 
0.168062 0.0753888 0.0156659 -0.14935 -0.155364 0.976502 255 255 255 255 
0.289672 -0.0386384 0.0160108 0.819459 0.257645 0.511963 255 255 255 255 
-0.242274 0.0500223 -0.0474991 -0.364653 0.200852 -0.909223 255 255 255 255 
0.0907104 0.199469 -0.111969 -0.00748139 0.116759 -0.993132 255 255 255 255 
-0.209781 0.0259506 -0.0398741 0.254134 -0.553447 -0.793166 255 255 255 255 
0.20464 0.130322 0.0259786 -0.0826476 -0.12055 0.989261 255 255 255 255 
-0.000568066 -0.000631129 -0.0241148 -0.0665423 -0.246825 0.966773 255 255 255 255 
-0.190675 0.145019 0.0392194 -0.467894 0.30938 0.827864 255 255 255 255 
-0.0494728 0.325132 -0.0775677 -0.262393 0.48456 -0.834477 255 255 255 255 
0.0380164 -0.326582 0.0241199 -0.899138 0.130105 0.417881 255 255 255 255 
0.142281 -0.203267 -0.0224541 -0.979315 -0.0292626 0.200217 255 255 255 255 
0.192442 0.208323 -0.100055 0.392968 0.15535 -0.906335 255 255 255 255 
0.0797695 0.195482 -0.112219 -0.0132336 0.117493 -0.992986 255 255 255 255 
0.0940877 -0.156508 -0.0260822 0.394271 0.216296 0.893178 255 255 255 255 
0.0658336 0.144811 -0.1175 0.0198971 0.0781455 -0.996743 255 255 255 255 
0.193562 -0.281636 -0.0105951 0.475137 -0.524982 -0.706144 255 255 255 255 
-0.287607 -0.0168735 -0.0260895 0.140945 -0.517404 -0.844054 255 255 255 255 
0.217212 0.310792 -0.0547343 0.4644 0.385394 -0.797373 255 255 255 255 
0.133743 0.0700708 0.00938489 -0.156587 -0.181962 0.970758 255 255 255 255 
-0.08779 -0.221195 -0.0379764 -0.807747 0.148293 0.570573 255 255 255 255 
-0.175937 0.0225773 0.011241 0.57898 -0.814499 0.0370613 255 255 255 255 
0.132 0.0293829 -0.109363 0.158395 -0.179146 -0.970988 255 255 255 255 
-0.0584916 0.153945 -0.111134 -0.428435 -0.0677071 -0.901033 255 255 255 255 
0.0200642 0.356145 0.00917487 0.0617052 0.742966 0.666479 255 255 255 255 
-0.305073 0.054367 0.00879081 -0.606249 0.765822 0.214427 255 255 255 255 
0.0179757 0.0134911 -0.113292 -0.07027 -0.201174 -0.977032 255 255 255 255 
0.0199885 -0.13438 -0.0696967 -0.686908 -0.164188 -0.707955 255 255 255 255 
0.0854724 -0.134921 -0.0974796 0.485767 -0.121165 -0.86565 255 255 255 255 
0.0988494 0.19132 0.0120852 -0.110353 -0.18771 0.976006 255 255 255 255 
-0.0580569 -0.166507 -0.0179488 -0.349363 0.131136 0.927766 255 255 255 255 
0.0979608 0.0929047 0.00551748 -0.127783 -0.168384 0.977404 255 255 255 255 
0.204777 -0.00914088 0.00134663 -0.278274 -0.20346 0.938705 255 255 255 255 
-0.00282623 0.122188 0.00120542 0.0519001 -0.230995 0.97157 255 255 255 255 
-0.159042 0.0373373 0.0196595 0.608836 -0.790213 0.0698661 255 255 255 255 
0.266863 -0.0833732 -0.0354792 0.316607 -0.281061 -0.905961 255 255 255 255 
0.285579 -0.0363093 -0.0360684 0.447263 -0.218959 -0.867187 255 255 255 255 
0.213553 -0.0877902 -0.0442813 0.972385 0.0538441 -0.227087 255 255 255 255 
0.0213973 0.121449 -0.118071 -0.0293489 0.0570911 -0.997938 255 255 255 255 
0.0801743 0.231632 -0.109474 -0.0332801 0.165432 -0.985659 255 255 255 255 
0.270256 0.0581274 0.0187257 0.837552 0.0980867 0.537481 255 255 255 255 
0.22016 -0.0270742 -0.0506533 0.663075 -0.15499 -0.732332 255 255 255 255 
0.0586424 0.15263 -0.116829 0.00585181 0.0885298 -0.996056 255 255 255 255 
0.200164 0.00977867 0.00466034 -0.209554 -0.232913 0.949652 255 255 255 255 
0.139993 -0.173647 -0.0270543 -0.968933 -0.0573676 0.24058 255 255 255 255 
-0.112282 0.076846 -0.0355051 0.616144 -0.787258 0.024316 255 255 255 255 
-0.105583 0.123821 0.0442119 0.243229 -0.292034 0.924963 255 255 255 255 
0.0533119 0.362799 -0.0379003 -0.0229574 0.974757 -0.222084 255 255 255 255 
0.233009 0.0830824 -0.0864322 0.4408 -0.0566515 -0.895816 255 255 255 255 
0.165589 -0.12259 0.00482788 -0.625223 0.0932136 0.77486 255 255 255 255 
0.198197 0.147784 -0.101833 0.371517 0.0489669 -0.927134 255 255 255 255 
0.198477 0.062431 -0.101653 0.370679 -0.1227 -0.92062 255 255 255 255 
-0.0713951 0.120203 -0.0973344 -0.615729 -0.137495 -0.775869 255 255 255 255 
0.225598 0.274045 -0.0635428 0.505371 0.302174 -0.808264 255 255 255 255 
-0.252485 0.0152373 -0.0416797 0.171875 -0.524695 -0.833759 255 255 255 255 
-0.0152896 0.227454 -0.104735 -0.104111 0.178229 -0.978466 255 255 255 255 
0.000296998 0.364928 -0.0343044 -0.0883131 0.971202 -0.221287 255 255 255 255 
-0.256978 -0.0220059 0.0332418 0.386222 -0.883454 0.265221 255 255 255 255 
0.108233 0.245446 0.0276555 -0.141887 -0.205071 0.968408 255 255 255 255 
0.0838877 0.275304 -0.10381 -0.0142976 0.253834 -0.967142 255 255 255 255 
0.101403 0.0600988 0.00211118 -0.139326 -0.209653 0.967798 255 255 255 255 
0.112423 -0.281216 -0.0414977 0.997353 -0.0253084 -0.0681695 255 255 255 255 
-0.0837764 -0.140988 -0.0411248 -0.614721 0.114567 0.780379 255 255 255 255 
0.236868 0.106838 0.0261563 -0.0483015 -0.0852794 0.995186 255 255 255 255 
0.214821 0.00137648 0.00615383 -0.255673 -0.206795 0.944387 255 255 255 255 
-0.151275 0.249859 0.0381579 -0.424747 0.2879 0.858314 255 255 255 255 
0.00775316 0.33885 -0.0782921 -0.125844 0.524929 -0.841791 255 255 255 255 
-0.143349 0.286037 -0.0206392 -0.75853 0.632405 0.15715 255 255 255 255 
-0.171057 0.193376 -0.0579534 -0.521693 0.10349 -0.846833 255 255 255 255 
0.261726 0.20253 -0.0571293 0.572521 0.176738 -0.800615 255 255 255 255 
-0.136729 0.227594 0.0514972 -0.37802 0.220662 0.899116 255 255 255 255 
-0.0145262 0.0206346 -0.11565 -0.0515996 -0.132633 -0.989821 255 255 255 255 
-0.0577383 0.301024 -0.0857388 -0.256262 0.366406 -0.89447 255 255 255 255 
-0.0060303 -0.309914 -0.0101841 0.500622 -0.599064 0.6249 255 255 255 255 
-0.198839 0.0118359 0.0384365 0.322679 -0.435237 0.840504 255 255 255 255 
0.1846 0.199875 0.0362227 -0.0864364 -0.176522 0.980494 255 255 255 255 
-0.231301 0.00718394 -0.0326484 0.216981 -0.561819 -0.798297 255 255 255 255 
0.106228 0.161361 0.0106355 -0.126993 -0.161149 0.978726 255 255 255 255 
0.196993 0.204462 0.0385187 -0.0530163 -0.172731 0.983541 255 255 255 255 
0.0983937 0.222463 0.0180667 -0.114026 -0.208578 0.971336 255 255 255 255 
0.0220586 0.0848169 -0.1209 -0.0432444 0.00237931 -0.999062 255 255 255 255 
0.101536 0.153379 0.00910806 -0.120502 -0.157622 0.98012 255 255 255 255 
-0.23348 0.0604948 -0.0478474 -0.325647 0.141125 -0.9349 255 255 255 255 
-0.255073 0.0399022 0.0629101 -0.0544248 -0.0286747 0.998106 255 255 255 255 
0.249236 -0.0676777 0.0283381 -0.447332 0.16532 0.878956 255 255 255 255 
0.236094 0.180724 0.0344333 -0.0153964 -0.146661 0.989067 255 255 255 255 
-0.05576 0.11453 0.00441512 0.100161 -0.326033 0.940037 255 255 255 255 
0.108555 -0.274868 -0.056677 0.126517 -0.456852 -0.8805 255 255 255 255 
0.128129 0.340625 -0.0786886 0.148867 0.480611 -0.864206 255 255 255 255 
-0.267095 0.0680063 -0.0314074 -0.423607 0.286566 -0.859323 255 255 255 255 
-0.0519378 0.330346 -0.0741312 -0.29691 0.555051 -0.777021 255 255 255 255 
0.310151 -0.0972914 0.0146154 0.989053 0.0723387 -0.128612 255 255 255 255 
0.116605 -0.0596553 -0.049146 -0.842857 -0.082128 0.531833 255 255 255 255 
0.110823 -0.0128146 -0.0478715 -0.962243 -0.256514 0.0910476 255 255 255 255 
0.0814263 0.268897 0.0282933 -0.00865514 -0.184972 0.982706 255 255 255 255 
0.104684 -0.109417 -0.0356821 0.175428 0.0594397 0.982696 255 255 255 255 
0.288377 0.0736992 -0.012525 0.895835 0.0995616 0.43309 255 255 255 255 
0.0444601 -0.101493 -0.0342105 -0.0169696 0.0376765 0.999146 255 255 255 255 
0.126257 0.297706 -0.0979742 0.11748 0.326747 -0.937782 255 255 255 255 
0.107146 -0.00216253 -0.0751803 -0.961261 -0.265562 0.0738482 255 255 255 255 
0.0231828 -0.00232255 -0.0257535 -0.0767483 -0.272845 0.958992 255 255 255 255 
-0.00573295 0.0608525 -0.0082866 -0.0673577 -0.223139 0.972457 255 255 255 255 
0.0392215 -0.129764 -0.0456979 -0.903259 0.0792597 0.421712 255 255 255 255 
-0.265383 -0.00429199 -0.0308657 0.153622 -0.521682 -0.839195 255 255 255 255 
-0.0473362 0.257404 0.067498 0.211179 -0.226428 0.95086 255 255 255 255 
-0.200839 0.046052 0.0545376 0.308258 -0.372495 0.875342 255 255 255 255 
0.158784 -0.0448712 -0.00486528 -0.728117 -0.0445455 0.684003 255 255 255 255 
-0.0759596 -0.171524 -0.0880478 -0.87209 -0.0203452 -0.488922 255 255 255 255 
0.248329 0.169686 0.0288844 0.74762 0.07008 0.660419 255 255 255 255 
-0.0585284 -0.0523352 -0.0327063 -0.617945 -0.0336351 0.785501 255 255 255 255 
0.084114 0.111909 0.00475242 -0.104829 -0.158901 0.981713 255 255 255 255 
-0.0440993 -0.0944246 -0.0243556 0.0964722 0.0246145 0.995031 255 255 255 255 
-0.141534 0.233427 -0.0727431 -0.506993 0.229678 -0.830786 255 255 255 255 
0.172336 0.0855438 0.0173613 -0.144589 -0.141844 0.979272 255 255 255 255 
0.196037 -0.0906786 -0.0678932 0.334306 -0.164156 -0.928058 255 255 255 255 
0.0827233 -0.173893 -0.0933184 0.447618 -0.177218 -0.876488 255 255 255 255 
-0.239156 0.109477 -0.00754442 -0.737388 0.656392 0.159398 255 255 255 255 
0.0994203 0.319752 -0.0911138 0.0492542 0.397401 -0.916322 255 255 255 255 
-0.0533345 0.225895 0.0579356 0.199662 -0.254236 0.946308 255 255 255 255 
0.263246 0.236872 -0.0413213 0.947298 0.290102 -0.135897 255 255 255 255 
0.276933 0.0247401 0.0147161 0.868788 0.124577 0.479257 255 255 255 255 
-0.0834252 -0.292553 -0.0654183 -0.333764 -0.432214 -0.837731 255 255 255 255 
-0.165607 0.164345 -0.0610477 -0.42695 -0.00554486 -0.904258 255 255 255 255 
-0.0198665 0.195251 0.0306721 0.24452 -0.321606 0.914757 255 255 255 255 
-0.118886 0.0781733 0.015007 0.58877 -0.703468 0.398099 255 255 255 255 
-0.24244 0.104361 0.00435544 -0.70706 0.671271 0.222399 255 255 255 255 
0.281217 0.149272 -0.0415202 0.98833 0.152165 -0.00698645 255 255 255 255 
0.0319289 0.24881 -0.103955 -0.0879639 0.194685 -0.976914 255 255 255 255 
0.169482 0.0565488 0.0132274 -0.150835 -0.183983 0.971287 255 255 255 255 
-0.196207 0.121383 -0.0497109 -0.488804 0.185638 -0.852414 255 255 255 255 
0.228779 0.327984 -0.028963 0.787681 0.615925 -0.0139612 255 255 255 255 
-0.0968041 0.303291 -0.0657003 -0.516193 0.528854 -0.67369 255 255 255 255 
-0.0511096 0.19499 -0.110195 -0.183527 0.106972 -0.977177 255 255 255 255 
0.115814 -0.299057 -0.00650774 0.993152 -0.0881688 -0.0766479 255 255 255 255 
0.117046 -0.315948 0.0137018 0.98065 -0.175782 -0.0861737 255 255 255 255 
0.272189 0.190627 0.0151842 0.973827 0.192069 0.121532 255 255 255 255 
0.134271 -0.120204 -0.0768019 0.423921 -0.142342 -0.894444 255 255 255 255 
-0.0857032 -0.263355 -0.0214467 -0.787543 0.165123 0.593726 255 255 255 255 
0.176 0.22302 -0.105265 0.315272 0.177725 -0.932211 255 255 255 255 
-0.269952 0.0837401 -0.00551659 -0.650892 0.724308 0.227414 255 255 255 255 
0.263269 0.136299 -0.0670027 0.484218 0.056935 -0.873093 255 255 255 255 
0.163608 0.364431 -0.00940016 0.212924 0.977065 0.00266037 255 255 255 255 
-0.088165 0.0434596 -0.0674143 -0.898502 -0.147573 0.413421 255 255 255 255 
0.128433 -0.205791 -0.0277224 -0.492082 -0.430288 -0.756774 255 255 255 255 
0.124937 -0.118736 -0.0822344 0.384348 -0.141469 -0.912285 255 255 255 255 
-0.0088435 0.231392 0.0443798 0.276325 -0.302707 0.912147 255 255 255 255 
-0.0701932 0.0705964 -0.0955591 -0.717765 -0.0900751 -0.690435 255 255 255 255 
-0.0357688 0.233604 -0.103684 -0.148588 0.189067 -0.970657 255 255 255 255 
-0.0748529 -0.173109 -0.0290097 -0.629198 0.135548 0.765335 255 255 255 255 
0.202042 -0.196072 -0.0519432 0.170389 -0.352084 -0.920328 255 255 255 255 
0.00263161 -0.231139 -0.0642177 0.673056 -0.199047 -0.712303 255 255 255 255 
0.0560296 -0.258804 -0.0670284 -0.171113 -0.414738 -0.893707 255 255 255 255 
0.000508235 -0.218692 -0.0682068 0.698249 -0.18464 -0.691633 255 255 255 255 
0.096755 -0.0413287 -0.0961893 0.262465 -0.174811 -0.948975 255 255 255 255 
0.104682 0.350933 0.0144091 -0.0981441 0.638401 0.763421 255 255 255 255 
-0.0844273 0.238033 -0.0970817 -0.313276 0.197314 -0.928938 255 255 255 255 
-0.107731 0.219358 0.0635405 -0.294851 0.164563 0.941266 255 255 255 255 
0.151098 0.321952 -0.0844426 0.239919 0.431837 -0.869457 255 255 255 255 
0.141132 0.083304 -0.11486 0.141733 -0.0448474 -0.988888 255 255 255 255 
0.132859 0.351145 -0.0675886 0.165512 0.798474 -0.578831 255 255 255 255 
0.146775 -0.106823 -0.0799481 0.306183 -0.1524 -0.939695 255 255 255 255 
0.207839 -0.0093136 -0.0666355 0.572434 -0.218889 -0.790194 255 255 255 255 
0.222546 -0.229799 0.0410378 0.980105 0.14343 0.137195 255 255 255 255 
0.0797893 0.165453 0.00613377 -0.0685129 -0.1758 0.982039 255 255 255 255 
-0.184454 0.0157397 -0.00183209 0.561861 -0.826746 0.028355 255 255 255 255 
-0.295687 0.0562989 0.027177 -0.607431 0.758787 0.235097 255 255 255 255 
0.227855 0.242245 0.0450069 0.0730462 -0.151914 0.985691 255 255 255 255 
-0.302771 -0.0212571 -0.00281964 -0.744615 -0.663761 -0.0704878 255 255 255 255 
-0.0540081 0.364781 0.00248119 -0.117997 0.895179 0.429804 255 255 255 255 
0.210717 0.346822 -0.0130814 0.593895 0.804208 -0.023203 255 255 255 255 
0.155912 -0.204059 0.0240928 -0.203698 0.388851 0.8985 255 255 255 255 
0.176506 0.253024 0.0507084 -0.0584858 -0.17878 0.982149 255 255 255 255 
0.0187035 0.317917 0.0472681 0.102171 0.663098 0.741527 255 255 255 255 
-0.28853 0.0591224 -0.0241184 -0.443076 0.305182 -0.84294 255 255 255 255 
-0.0279496 0.352162 0.0293741 0.0265655 0.780526 0.624558 255 255 255 255 
0.243507 0.197229 0.0355768 0.777567 0.0945091 0.621657 255 255 255 255 
-0.0624038 0.00987939 -0.102745 -0.802508 -0.0516529 -0.594402 255 255 255 255 
-0.177553 0.199889 0.0299412 -0.816318 0.412316 0.4045 255 255 255 255 
-0.0748756 0.350817 -0.00222832 -0.591488 0.759142 0.271745 255 255 255 255 
-0.00182388 -0.0665847 -0.0985557 0.289246 -0.152252 -0.945069 255 255 255 255 
0.0593751 -0.106891 -0.0347429 -0.931961 -0.02119 0.361938 255 255 255 255 
-0.0524842 0.287883 0.0674672 -0.2716 0.203647 0.940618 255 255 255 255 
0.0265784 0.346401 0.0175576 0.0666599 0.704802 0.706265 255 255 255 255 
0.0905954 0.227852 -0.110216 -0.018207 0.158633 -0.98717 255 255 255 255 
0.152115 -0.260815 0.0430204 -0.903114 0.137827 0.40668 255 255 255 255 
0.031951 0.226907 -0.106717 -0.0776596 0.168148 -0.982698 255 255 255 255 
-0.0895899 -0.177543 -0.0599897 -0.906428 -0.0189115 -0.421937 255 255 255 255 
0.0963863 0.167754 0.00900589 -0.106801 -0.169429 0.979738 255 255 255 255 
0.102803 0.138713 0.00857501 -0.124422 -0.151537 0.98059 255 255 255 255 
0.29097 -0.00204804 -0.0380888 0.511915 -0.186511 -0.838545 255 255 255 255 
0.0762658 0.262756 -0.105674 -0.0340742 0.222967 -0.97423 255 255 255 255 
0.044638 0.361901 -0.0420567 -0.0317408 0.972287 -0.231627 255 255 255 255 
-0.168802 0.206637 -0.0588065 -0.520813 0.127769 -0.844055 255 255 255 255 
0.0532131 -0.353735 -0.0012175 -0.497942 -0.863973 0.0748642 255 255 255 255 
0.183047 0.185149 0.0326008 -0.0980494 -0.167347 0.98101 255 255 255 255 
0.124823 -0.272696 -0.0468268 0.283079 -0.483918 -0.828064 255 255 255 255 
-0.146319 0.15707 -0.0676002 -0.387313 -0.0835928 -0.918151 255 255 255 255 
0.12631 -0.321632 0.0355089 0.3261 0.397905 0.857514 255 255 255 255 
0.166614 -0.153657 -0.0687844 0.256058 -0.238959 -0.936661 255 255 255 255 
0.115546 0.117951 0.010105 -0.141076 -0.148442 0.978807 255 255 255 255 
0.0589689 0.134054 0.00259161 -0.0473433 -0.168206 0.984614 255 255 255 255 
0.116286 -0.302361 0.000402146 0.992615 -0.0979623 -0.0715426 255 255 255 255 
0.172272 -0.0270405 -0.0861344 0.20019 -0.210822 -0.956806 255 255 255 255 
-0.245072 0.100724 0.00913648 -0.692815 0.678945 0.242984 255 255 255 255 
-0.0571448 -0.0263621 -0.106865 -0.211942 -0.102437 -0.971899 255 255 255 255 
0.00111953 -0.275652 -0.042848 0.945358 -0.0955715 0.311712 255 255 255 255 
-0.0233897 -0.097826 -0.0280091 0.130688 0.0227723 0.991162 255 255 255 255 
0.0169118 -0.06014 -0.0385932 0.0852861 -0.0823835 0.992945 255 255 255 255 
0.209755 -0.163202 -0.0544944 0.238532 -0.273096 -0.931945 255 255 255 255 
0.126953 -0.230347 -0.0586156 0.364746 -0.298638 -0.881916 255 255 255 255 
0.215055 -0.141618 -0.0460221 0.961078 -0.0116366 -0.276032 255 255 255 255 
0.0859878 0.251102 0.0236373 -0.0462734 -0.207704 0.977097 255 255 255 255 
-0.189839 0.146231 -0.0489308 -0.486838 0.116478 -0.865692 255 255 255 255 
0.251281 0.077152 -0.0770468 0.469177 -0.064689 -0.880731 255 255 255 255 
0.000424389 0.186212 0.0173463 0.197244 -0.298635 0.933762 255 255 255 255 
0.24049 -0.0681272 0.0247572 -0.456806 0.157419 0.875527 255 255 255 255 
0.190342 0.356801 -0.0254728 0.296137 0.953403 -0.057673 255 255 255 255 
-0.148726 0.0443006 -0.0161752 0.621895 -0.782822 0.0208635 255 255 255 255 
0.272504 0.195685 -0.0443301 0.974025 0.21236 -0.07861 255 255 255 255 
-0.0011792 -0.0303575 -0.0335145 0.105015 -0.173311 0.979252 255 255 255 255 
-0.0205075 0.268211 0.0638415 0.285437 -0.232746 0.929707 255 255 255 255 
0.190146 -0.00822325 -0.0807458 0.575694 -0.207643 -0.79086 255 255 255 255 
0.229508 -0.261602 0.0215169 0.990357 0.103207 0.0924222 255 255 255 255 
0.097684 -0.249352 0.00954592 0.185215 0.399977 0.897615 255 255 255 255 
0.197767 0.0406737 -0.0960687 0.399415 -0.213865 -0.891476 255 255 255 255 
0.0634728 0.14591 0.00337516 -0.0449191 -0.171609 0.984141 255 255 255 255 
0.0131335 -0.154164 -0.0605815 0.820601 -0.124781 -0.557713 255 255 255 255 
-0.183357 0.0967912 -0.0573033 -0.240642 -0.0481137 -0.969421 255 255 255 255 
-0.0874197 0.273784 -0.0867451 -0.352432 0.324446 -0.877796 255 255 255 255 
0.130969 0.365878 -0.0111973 0.0618896 0.995475 0.0721095 255 255 255 255 
-0.0330527 0.312134 -0.0866764 -0.199285 0.397862 -0.89554 255 255 255 255 
0.0596645 -0.0558486 -0.100771 -0.126356 -0.200121 -0.971589 255 255 255 255 
-0.130779 0.16526 0.0597387 0.10581 -0.155545 0.982146 255 255 255 255 
-0.175144 0.12875 -0.0581939 -0.410259 0.0472729 -0.910743 255 255 255 255 
0.191864 -0.284288 0.0923426 -0.302359 0.511538 0.804306 255 255 255 255 
-0.197116 0.149033 0.0305125 -0.762847 0.495776 0.415054 255 255 255 255 
0.0784408 -0.0743785 -0.100985 0.360141 -0.116841 -0.925552 255 255 255 255 
-0.0151582 -0.0363897 -0.0310852 0.0677588 -0.146836 0.986837 255 255 255 255 
-0.0156724 -0.197846 -0.0897619 0.653255 -0.166172 -0.738678 255 255 255 255 
0.0705565 -0.0989551 -0.100931 0.290365 -0.111844 -0.950357 255 255 255 255 
0.120398 -0.107461 -0.0518271 -0.89113 -0.070982 0.448162 255 255 255 255 
-0.021304 0.359886 -0.0462183 -0.164885 0.873109 -0.458796 255 255 255 255 
-0.0738745 0.00162622 -0.0862011 -0.823012 -0.0480761 -0.565986 255 255 255 255 
-0.161877 0.259312 -0.0425761 -0.608809 0.41058 -0.678804 255 255 255 255 
0.168817 0.323995 0.0548813 -0.039651 0.598057 0.800472 255 255 255 255 
0.0494102 0.252984 0.0270676 0.172006 -0.244969 0.954151 255 255 255 255 
-0.00394307 -0.189749 -0.0258968 0.446646 0.0992718 0.889186 255 255 255 255 
0.273571 0.044272 -0.0602075 0.525945 -0.1399 -0.838934 255 255 255 255 
-0.286514 0.0200628 -0.0390211 -0.430418 0.263145 -0.86342 255 255 255 255 
-0.0824631 -0.284158 -0.00877865 -0.706049 0.181564 0.684492 255 255 255 255 
0.127028 -0.319266 0.0365778 0.521366 -0.664648 0.535183 255 255 255 255 
0.169007 -0.100944 0.00465007 -0.652798 0.0664955 0.754608 255 255 255 255 
-0.179787 0.064625 0.053219 0.337018 -0.370016 0.865741 255 255 255 255 
-0.0153003 -0.31713 -0.0504424 -0.296464 -0.542055 -0.786311 255 255 255 255 
-0.295205 0.0532015 0.0387566 -0.605533 0.758177 0.241863 255 255 255 255 
-0.0889765 0.0570216 -0.0635842 -0.893723 -0.15498 0.420999 255 255 255 255 
0.0539073 0.211509 0.0126205 0.0912647 -0.248885 0.964223 255 255 255 255 
0.117543 -0.00431436 -0.100505 0.16695 -0.215112 -0.962213 255 255 255 255 
0.241793 0.280914 0.0347221 0.823058 0.350863 0.446622 255 255 255 255 
-0.120824 0.201101 0.0621241 -0.311258 0.145813 0.939073 255 255 255 255 
-0.126294 0.212448 -0.0834291 -0.443291 0.0962661 -0.891194 255 255 255 255 
-0.127794 0.0949312 0.0436367 0.494316 -0.563881 0.661582 255 255 255 255 
0.11895 -0.0427693 -0.0619887 -0.965956 -0.254722 0.0452241 255 255 255 255 
-0.22762 0.0837773 0.0501467 -0.324535 0.349457 0.878952 255 255 255 255 
-0.069719 0.0747574 -0.0176872 -0.871694 -0.167705 0.460461 255 255 255 255 
-0.102668 0.27532 0.0510777 -0.369787 0.284104 0.884614 255 255 255 255 
0.0771509 0.0834623 0.00214248 -0.108853 -0.18186 0.977281 255 255 255 255 
-0.175851 0.228793 -0.037325 -0.887929 0.459897 0.00879597 255 255 255 255 
0.189345 -0.00538679 -0.00742792 0.120875 -0.286245 0.950501 255 255 255 255 
0.135059 0.22272 0.0298238 -0.168514 -0.206208 0.963889 255 255 255 255 
0.0437161 -0.214709 -0.0145399 -0.83334 0.183394 0.52145 255 255 255 255 
0.315254 -0.143721 0.0640112 0.477979 0.52327 0.705496 255 255 255 255 
0.221073 -0.177466 -0.0239963 0.956094 -0.0470302 -0.289261 255 255 255 255 
0.245035 0.287719 -0.0447651 0.530332 0.329018 -0.781342 255 255 255 255 
0.28056 0.15499 -0.0277674 0.987329 0.158687 0.000179059 255 255 255 255 
0.0399553 0.325112 0.0334932 0.0613973 0.656652 0.75169 255 255 255 255 
0.0152871 0.0124172 -0.019962 -0.090781 -0.267126 0.959376 255 255 255 255 
0.193199 0.194843 -0.101615 0.382458 0.127736 -0.915101 255 255 255 255 
-0.117461 0.253615 -0.0806883 -0.460094 0.305342 -0.833714 255 255 255 255 
0.091694 0.351004 -0.0727651 0.0483418 0.766064 -0.640943 255 255 255 255 
-0.0704832 0.190273 0.0505489 0.216505 -0.274565 0.936877 255 255 255 255 
0.139854 -0.308833 0.0226757 0.34806 0.404656 0.84564 255 255 255 255 
0.0347741 -0.0075351 -0.108557 -0.0584893 -0.246231 -0.967445 255 255 255 255 
-0.174245 0.223884 0.0163368 -0.870187 0.46333 0.167634 255 255 255 255 
0.207833 0.242291 -0.0845499 0.458355 0.229543 -0.858616 255 255 255 255 
-0.198187 0.152193 -0.0394519 -0.79426 0.384535 -0.470407 255 255 255 255 
-0.0050235 0.212436 0.0323514 0.255132 -0.317242 0.913381 255 255 255 255 
-0.0243934 0.156685 0.0145405 0.184039 -0.309824 0.932812 255 255 255 255 
0.0766853 0.364636 -0.0269573 -0.00246983 0.985635 -0.168873 255 255 255 255 
-0.054246 -0.137204 -0.106826 -0.654664 -0.0222299 -0.755593 255 255 255 255 
-0.0920013 0.0916322 -0.0230377 0.542186 -0.752388 -0.374094 255 255 255 255 
0.182953 -0.14459 0.0111711 -0.254022 0.346707 0.902921 255 255 255 255 
-0.0307689 0.0417028 -0.118028 -0.0854085 -0.0692896 -0.993934 255 255 255 255 
0.153121 0.36293 -0.0377162 0.170059 0.967908 -0.185024 255 255 255 255 
-0.0605648 -0.286077 0.0084705 -0.0172387 0.208716 0.977824 255 255 255 255 
0.139517 0.0163294 -0.00121573 -0.139716 -0.281473 0.949343 255 255 255 255 
-0.179153 0.050756 -0.0460985 0.335118 -0.579032 -0.743248 255 255 255 255 
-0.0625358 0.163552 -0.109973 -0.337821 -0.0200873 -0.940996 255 255 255 255 
0.00273879 0.199059 -0.109336 -0.0596578 0.141034 -0.988206 255 255 255 255 
0.00348313 -0.0221742 -0.0317472 -0.00630756 -0.214907 0.976614 255 255 255 255 
-0.0333635 -0.285787 0.00835508 0.00792421 0.21756 0.976015 255 255 255 255 
-0.0786617 0.182393 -0.103541 -0.351949 0.00151787 -0.936018 255 255 255 255 
0.0426077 0.301218 0.0418932 0.230492 -0.173099 0.957554 255 255 255 255 
0.110821 -0.168716 -0.0439404 0.999475 0.0308003 0.010076 255 255 255 255 
0.296071 -0.0353989 0.00323562 0.86047 0.23153 0.453857 255 255 255 255 
0.147069 0.0516675 -0.112444 0.172703 -0.127531 -0.976683 255 255 255 255 
0.292642 0.0542436 -0.0215496 0.938227 0.103922 0.330046 255 255 255 255 
-0.0792633 -0.307133 -0.0538039 -0.830328 -0.220853 -0.511644 255 255 255 255 
0.0681703 0.0199774 -0.119439 0.0269808 -0.187518 -0.98189 255 255 255 255 
0.23021 0.327746 -0.000639965 0.733828 0.679294 0.00744735 255 255 255 255 
-0.0523144 0.00319962 -0.0242313 -0.310848 -0.188028 0.931675 255 255 255 255 
0.154203 0.172775 0.0243127 -0.144747 -0.162034 0.976111 255 255 255 255 
-0.072155 0.336265 0.0371861 -0.571688 0.696206 0.434131 255 255 255 255 
-0.152491 0.102091 0.0553829 0.254452 -0.273674 0.927554 255 255 255 255 
0.0142765 0.176778 0.00999992 0.140636 -0.26559 0.953773 255 255 255 255 
-0.00481992 0.290385 0.0626856 0.306078 -0.192617 0.932317 255 255 255 255 
0.22216 0.226905 -0.0793948 0.496658 0.205621 -0.843238 255 255 255 255 
0.0896285 -0.0647878 -0.0966696 0.236945 -0.150307 -0.959825 255 255 255 255 
0.0636202 -0.106605 -0.0305455 0.0393217 0.0595177 0.997452 255 255 255 255 
-0.0340245 -0.257493 -0.0870304 0.57989 -0.224959 -0.78302 255 255 255 255 
-0.194105 0.172207 -0.0251878 -0.887365 0.44364 -0.125567 255 255 255 255 
0.157658 0.140734 0.0207265 -0.139703 -0.141104 0.980088 255 255 255 255 
0.202644 -0.196414 0.0321448 0.00730035 0.466886 0.884287 255 255 255 255 
0.0757741 -0.26449 0.0224946 0.152886 0.415094 0.896841 255 255 255 255 
0.109849 -0.0433409 -0.0602676 -0.569235 -0.247655 -0.783989 255 255 255 255 
-0.0259181 -0.0023525 -0.111909 -0.0434791 -0.151938 -0.987433 255 255 255 255 
-0.0911535 0.11795 0.027997 0.413028 -0.546829 0.728276 255 255 255 255 
-0.0812844 0.205918 -0.102245 -0.320741 0.0827673 -0.943544 255 255 255 255 
-0.143427 0.27996 0.00339831 -0.749762 0.621887 0.226082 255 255 255 255 
0.143448 -0.249085 0.0132363 -0.937172 0.0922303 0.336455 255 255 255 255 
0.136603 0.196119 -0.113735 0.0757879 0.102984 -0.991792 255 255 255 255 
0.114774 0.137645 -0.114498 0.0782514 0.040066 -0.996128 255 255 255 255 
0.253963 -0.118983 -0.0224648 -0.15533 -0.461213 -0.873588 255 255 255 255 
0.29198 -0.161661 0.0959785 -0.41795 0.465833 0.779947 255 255 255 255 
0.202071 -0.282514 -0.00450861 0.439609 -0.557163 -0.704495 255 255 255 255 
0.0717499 -0.194581 -0.00824008 0.246184 0.296008 0.922915 255 255 255 255 
-0.0500435 -0.229335 -0.0940152 -0.208703 -0.214297 -0.954212 255 255 255 255 
-0.17198 0.237388 -0.00314372 -0.868421 0.483821 0.108453 255 255 255 255 
0.138724 0.271804 -0.103747 0.15035 0.261633 -0.953385 255 255 255 255 
-0.0188395 0.34458 0.0356498 0.0629293 0.72382 0.687113 255 255 255 255 
0.170477 0.361663 0.00989138 0.224282 0.971641 0.074911 255 255 255 255 
-0.149332 0.278267 -0.0156071 -0.778404 0.612354 0.138237 255 255 255 255 
0.00266608 0.130186 0.00203951 0.0610674 -0.228662 0.971589 255 255 255 255 
0.259318 -0.168027 0.0692367 -0.414235 0.440792 0.796312 255 255 255 255 
0.0477824 0.356211 -0.0611112 -0.0321321 0.938666 -0.343329 255 255 255 255 
-0.0683169 0.258809 0.0662431 -0.230052 0.134138 0.96389 255 255 255 255 
-0.080192 -0.00623571 -0.0722469 -0.966771 -0.0556769 0.249508 255 255 255 255 
0.201895 0.341599 0.0397515 0.104128 0.599188 0.793808 255 255 255 255 
0.166676 0.313946 -0.0826031 0.309423 0.405893 -0.859947 255 255 255 255 
-0.0264354 0.00690649 -0.0207469 -0.106112 -0.221047 0.969473 255 255 255 255 
-0.0951431 0.119107 0.0338835 0.522665 -0.658499 0.541479 255 255 255 255 
0.036574 -0.0471404 -0.0376716 -0.0139849 -0.154997 0.987816 255 255 255 255 
-0.163173 0.23857 0.0340541 -0.827892 0.507839 0.238106 255 255 255 255 
0.214825 0.343267 0.00991335 0.630856 0.775847 0.00909062 255 255 255 255 
0.268123 0.231471 -0.00248673 0.877092 0.180108 0.445276 255 255 255 255 
0.205526 0.0311258 -0.0885839 0.43017 -0.229137 -0.873184 255 255 255 255 
0.29783 -0.091081 -0.0222055 0.366494 -0.281305 -0.886876 255 255 255 255 
0.01242 -0.00719152 -0.036511 0.4827 -0.295645 0.824375 255 255 255 255 
0.174317 0.2874 -0.0898609 0.333858 0.327295 -0.883978 255 255 255 255 
-0.0074914 0.273656 -0.097586 -0.125229 0.245641 -0.961238 255 255 255 255 
0.0639402 0.33249 0.0232044 -0.0047422 0.633207 0.773968 255 255 255 255 
0.138793 0.333807 0.0407588 -0.108807 0.621447 0.775864 255 255 255 255 
0.0323088 0.30203 -0.0956304 -0.0874947 0.334055 -0.938484 255 255 255 255 
0.189599 0.278902 0.0572001 0.0120936 -0.130964 0.991313 255 255 255 255 
0.0555094 -0.351663 0.03714 -0.498074 -0.863844 0.0754712 255 255 255 255 
0.0362991 0.0247241 -0.11854 -0.0634805 -0.182559 -0.981143 255 255 255 255 
0.025135 0.123097 0.000493435 0.00116488 -0.191848 0.981424 255 255 255 255 
0.28248 -0.0841008 0.0457182 0.618913 0.406123 0.672317 255 255 255 255 
0.168585 -0.137706 -0.0711501 0.278054 -0.210105 -0.937306 255 255 255 255 
-0.0986952 0.262238 0.0565794 -0.337946 0.245723 0.908522 255 255 255 255 
-0.135843 0.0554946 0.0175322 0.522864 -0.589638 0.615581 255 255 255 255 
0.0327246 0.190159 -0.111524 -0.0428141 0.128331 -0.990807 255 255 255 255 
0.21974 -0.230222 0.0576346 0.977509 0.144256 0.153837 255 255 255 255 
-0.0717975 0.139496 -0.100275 -0.54804 -0.130164 -0.826262 255 255 255 255 
0.22241 0.291151 -0.0596602 0.488678 0.340069 -0.803459 255 255 255 255 
0.137916 0.0764391 -0.114744 0.135248 -0.0591352 -0.989046 255 255 255 255 
-0.177167 0.162933 0.041965 -0.431424 0.23439 0.871169 255 255 255 255 
-0.00990251 0.277511 0.0622758 0.299415 -0.213637 0.929898 255 255 255 255 
-0.149114 0.16665 0.0549512 -0.36925 0.172633 0.913155 255 255 255 255 
-0.0187135 0.260621 -0.0990454 -0.131924 0.224642 -0.96547 255 255 255 255 
0.154215 0.0505776 -0.111604 0.189248 -0.132181 -0.972992 255 255 255 255 
0.226741 0.19569 0.0370699 -0.0113924 -0.157023 0.987529 255 255 255 255 
0.0879937 0.207149 -0.111592 -0.0155098 0.12878 -0.991552 255 255 255 255 
0.204018 -0.0743664 -0.0255643 0.928296 0.144271 0.342714 255 255 255 255 
0.132999 0.0215736 -0.000775244 -0.145734 -0.273837 0.950671 255 255 255 255 
-0.209515 0.0461767 0.0579095 0.293572 -0.365615 0.883256 255 255 255 255 
0.0748679 0.273338 0.028995 0.0465194 -0.184972 0.981642 255 255 255 255 
0.0762794 0.152784 -0.116092 0.027234 0.0801174 -0.996413 255 255 255 255 
0.0315612 0.322725 0.0382818 0.0805419 0.662046 0.745123 255 255 255 255 
0.035119 -0.240966 -0.0498691 -0.93326 -0.141364 -0.330216 255 255 255 255 
0.0301928 -0.0743835 -0.0676947 -0.957363 -0.064515 0.281591 255 255 255 255 
-0.146454 0.0686956 -0.0426219 0.393079 -0.609129 -0.688803 255 255 255 255 
0.233167 0.0684064 -0.0855542 0.443432 -0.099901 -0.890723 255 255 255 255 
0.200384 -0.206133 0.0388981 -0.0373708 0.479293 0.876859 255 255 255 255 
0.175944 0.0291706 0.00739309 -0.138363 -0.237504 0.961482 255 255 255 255 
-0.213927 0.0546791 -0.0533463 -0.265264 0.0565826 -0.962514 255 255 255 255 
0.0418623 0.214858 -0.109069 -0.0623644 0.152646 -0.986311 255 255 255 255 
-0.209039 0.0178398 -0.0336807 0.255463 -0.562234 -0.786532 255 255 255 255 
0.168448 0.303332 -0.0865386 0.314361 0.372832 -0.873026 255 255 255 255 
-0.0649254 0.100348 -0.000228825 0.0231532 -0.296418 0.954778 255 255 255 255 
-0.140213 0.101759 -0.059734 -0.225319 -0.187331 -0.956106 255 255 255 255 
0.271044 -0.221363 0.109973 -0.465626 0.44465 0.765166 255 255 255 255 
-0.255879 -0.0259976 0.00556878 0.379534 -0.924411 0.0376671 255 255 255 255 
0.252587 0.136616 0.0245935 0.707093 0.057777 0.704756 255 255 255 255 
0.0402397 -0.117768 -0.0930907 0.316313 -0.116279 -0.941502 255 255 255 255 
0.0214483 -0.303291 -0.0265366 -0.920877 0.128733 0.367985 255 255 255 255 
0.104055 -0.0285231 -0.0960557 0.246055 -0.18972 -0.950507 255 255 255 255 
0.170316 -0.222744 -0.0451233 0.0242564 -0.43858 -0.898365 255 255 255 255 
-0.0541644 -0.299515 -0.0705655 -0.278936 -0.419663 -0.863758 255 255 255 255 
0.133318 0.221429 -0.1122 0.0767226 0.150716 -0.985596 255 255 255 255 
-0.0711631 -0.298835 0.00640871 -0.644056 0.189737 0.741074 255 255 255 255 
0.0394166 0.139708 -0.117682 -0.0120163 0.0788944 -0.996811 255 255 255 255 
-0.165263 0.070337 -0.0532952 0.160559 -0.427872 -0.889464 255 255 255 255 
0.146151 -0.228048 -0.0387306 -0.157027 -0.472715 -0.867112 255 255 255 255 
-0.292612 -0.032066 -0.00626126 -0.741612 -0.667389 -0.0678508 255 255 255 255 
0.228601 0.301689 -0.0511085 0.489934 0.35959 -0.794141 255 255 255 255 
0.107296 0.0801967 0.00569903 -0.139742 -0.179223 0.973833 255 255 255 255 
0.2086 0.258466 0.0510338 0.0627937 -0.14414 0.987563 255 255 255 255 
-0.189097 0.019215 -0.0268614 0.294394 -0.575637 -0.762872 255 255 255 255 
0.180181 -0.21211 -0.0498254 0.0619694 -0.409786 -0.910074 255 255 255 255 
-0.0690481 -0.0485365 -0.0971455 -0.509718 -0.0458657 -0.859118 255 255 255 255 
0.150735 0.0136539 -0.102995 0.196669 -0.215942 -0.956394 255 255 255 255 
0.210399 -0.0797555 -0.0397051 0.956115 0.136479 0.259264 255 255 255 255 
0.263188 0.0497148 -0.0675988 0.50289 -0.134752 -0.853782 255 255 255 255 
-0.0589872 0.0808399 -0.00735304 -0.0338941 -0.274058 0.961116 255 255 255 255 
0.0402423 0.358973 0.00149812 0.0365901 0.694151 0.718899 255 255 255 255 
-0.303742 0.0475702 0.0373303 -0.603388 0.76386 0.228997 255 255 255 255 
0.193518 -0.0243426 -0.0733141 0.66607 -0.154866 -0.729635 255 255 255 255 
0.205578 0.238435 0.0467983 0.0278042 -0.163161 0.986208 255 255 255 255 
0.0378205 0.314765 -0.0919045 -0.0774269 0.38036 -0.921592 255 255 255 255 
0.0193963 -0.164025 -0.0579723 0.754607 -0.133986 -0.642352 255 255 255 255 
0.0433386 -0.178419 -0.0831727 -0.689672 -0.203437 -0.694957 255 255 255 255 
0.0589547 0.126258 0.00240746 -0.0554543 -0.166154 0.984539 255 255 255 255 
0.00464627 -0.180758 -0.0220048 0.134676 0.134871 0.981668 255 255 255 255 
0.0478901 0.107029 0.000897422 -0.0607473 -0.172684 0.983102 255 255 255 255 
0.270387 -0.0233802 0.0266729 -0.350695 0.0044999 0.936479 255 255 255 255 
0.223787 -0.247325 0.0501465 0.98083 0.131002 0.144257 255 255 255 255 
-0.121221 0.0883293 0.0333616 0.586563 -0.696789 0.412831 255 255 255 255 
0.280791 0.0355298 0.00705627 0.888832 0.11279 0.444136 255 255 255 255 
0.0282567 0.118194 -0.119007 -0.0251383 0.0535269 -0.99825 255 255 255 255 
-0.157838 0.0636443 -0.0451906 0.367211 -0.590753 -0.718448 255 255 255 255 
0.241417 0.263312 -0.0557428 0.543738 0.282289 -0.790356 255 255 255 255 
0.140278 -0.195552 -0.0337623 -0.978157 -0.0484877 0.202136 255 255 255 255 
-0.0262176 0.17251 -0.11348 -0.0789892 0.0941889 -0.992416 255 255 255 255 
0.22932 0.0571766 -0.0856838 0.438731 -0.141999 -0.887328 255 255 255 255 
0.0288252 -0.303 -0.00653819 -0.914786 0.131763 0.381844 255 255 255 255 
0.0937731 0.316779 -0.0922536 0.0317468 0.380737 -0.924138 255 255 255 255 
0.0871093 0.314512 0.0363271 -0.033997 -0.0473183 0.998301 255 255 255 255 
0.246832 -0.235285 0.0477923 0.1321 0.497309 0.857458 255 255 255 255 
0.295197 -0.0121168 -0.00978435 0.904144 0.173218 0.390537 255 255 255 255 
0.0932031 0.143917 -0.115468 0.0522666 0.0607033 -0.996787 255 255 255 255 
-0.223952 -0.0177953 0.0221653 0.370217 -0.651699 0.661988 255 255 255 255 
-0.00391828 -0.0862831 -0.0370172 0.760932 -0.0347896 0.647898 255 255 255 255 
0.169046 0.306578 0.0606689 -0.0441237 -0.066578 0.996805 255 255 255 255 
0.114028 0.0554219 -0.116236 0.129448 -0.100692 -0.986461 255 255 255 255 
0.197657 0.0912294 -0.103922 0.356178 -0.0463224 -0.933269 255 255 255 255 
0.107869 -0.326445 0.0458345 0.544744 -0.651001 0.528632 255 255 255 255 
-0.153188 0.102614 -0.0594674 -0.225287 -0.149816 -0.962705 255 255 255 255 
0.257686 0.27009 -0.0161148 0.931129 0.363174 -0.0332184 255 255 255 255 
-0.102584 0.290977 -0.0699507 -0.51524 0.484657 -0.706849 255 255 255 255 
-0.106304 0.318017 0.00556858 -0.682866 0.688684 0.24374 255 255 255 255 
0.2028 -0.306888 0.0190835 0.41281 -0.628824 -0.658915 255 255 255 255 
0.0300293 0.34731 -0.0745872 -0.0852806 0.603233 -0.792993 255 255 255 255 
0.263469 0.167759 -0.0629401 0.521419 0.10786 -0.846457 255 255 255 255 
0.0929289 0.019395 -0.114527 0.119211 -0.183904 -0.975689 255 255 255 255 
0.159085 0.103019 -0.114039 0.192018 -0.0186638 -0.981214 255 255 255 255 
0.160955 -0.0713586 -0.00269947 -0.70797 0.0025442 0.706238 255 255 255 255 
0.00510367 -0.109037 -0.096827 0.319263 -0.120181 -0.940015 255 255 255 255 
-0.128271 0.0674785 0.0141935 0.613783 -0.728742 0.303655 255 255 255 255 
0.116183 -0.040102 -0.0658413 -0.550046 -0.249772 -0.796909 255 255 255 255 
0.162536 0.120914 -0.11348 0.207276 0.00557511 -0.978267 255 255 255 255 
-0.0500861 -0.0949355 -0.106425 -0.518508 -0.0288466 -0.854586 255 255 255 255 
-0.0843321 0.0729965 -0.0766612 -0.755618 -0.108443 -0.645973 255 255 255 255 
0.105805 -0.134635 -0.0320399 0.227236 0.152962 0.961752 255 255 255 255 
0.0825092 0.0494257 -0.00230076 -0.123851 -0.230717 0.965107 255 255 255 255 
0.125219 -0.0890016 -0.0361571 -0.793314 -0.0355683 0.607773 255 255 255 255 
0.000103124 0.358672 0.0124759 0.0560123 0.785443 0.616394 255 255 255 255 
-0.265443 0.0150249 -0.0431895 0.156819 -0.518137 -0.840798 255 255 255 255 
0.306166 -0.156645 0.0821762 0.488186 0.529979 0.693395 255 255 255 255 
0.257995 0.173223 0.0177651 0.749838 0.0714025 0.657758 255 255 255 255 
0.218438 -0.19643 0.0426524 -0.179446 0.466548 0.866102 255 255 255 255 
0.286488 0.100682 -0.049937 0.991067 0.109998 -0.075409 255 255 255 255 
-0.309679 0.0179814 0.05113 -0.899831 -0.049879 0.433377 255 255 255 255 
0.109621 0.305671 0.0426753 -0.123273 -0.0413881 0.991509 255 255 255 255 
0.171882 0.0587157 -0.110371 0.257396 -0.122671 -0.958488 255 255 255 255 
0.0325411 0.240444 0.0281782 0.220183 -0.275881 0.935633 255 255 255 255 
0.212647 -0.163635 0.0236343 -0.144989 0.418536 0.896552 255 255 255 255 
0.0930769 0.355439 -0.0649977 0.0361133 0.938978 -0.342075 255 255 255 255 
-0.0592979 0.112273 -0.107505 -0.634528 -0.120005 -0.763527 255 255 255 255 
0.051313 0.0977142 0.000698935 -0.0747604 -0.175636 0.981612 255 255 255 255 
0.0650332 0.239985 -0.107922 -0.0542403 0.180421 -0.982093 255 255 255 255 
-0.154144 0.19767 0.0484663 -0.399781 0.189803 0.896744 255 255 255 255 
0.152355 0.0491676 0.00944612 -0.151705 -0.209088 0.966058 255 255 255 255 
-0.124198 0.290431 0.0248752 -0.695959 0.633301 0.338483 255 255 255 255 
-0.0836749 -0.127822 -0.0471794 -0.998652 0.0511437 -0.00889435 255 255 255 255 
-0.0267711 -0.125478 -0.107207 0.532222 -0.120129 -0.838039 255 255 255 255 
0.226713 -0.166791 0.0336078 0.995427 0.0399198 -0.0867879 255 255 255 255 
0.204526 0.0414054 0.015241 -0.168591 -0.177122 0.969642 255 255 255 255 
-0.177372 0.181614 0.0380457 -0.453612 0.226009 0.862065 255 255 255 255 
0.240001 0.0691795 0.0253766 -0.134532 -0.0975151 0.986099 255 255 255 255 
-0.171468 0.0412439 -0.0359078 0.316128 -0.563456 -0.763269 255 255 255 255 
-0.0201244 -0.0506083 -0.105372 0.0151254 -0.142813 -0.989634 255 255 255 255 
-0.313583 0.0312014 0.0441222 -0.900089 -0.034627 0.434328 255 255 255 255 
0.151073 0.0820601 0.0138711 -0.153098 -0.159971 0.975177 255 255 255 255 
0.0370234 -0.332164 -0.0244018 -0.218037 -0.515551 -0.828654 255 255 255 255 
0.247176 0.151782 -0.0747622 0.484417 0.0770223 -0.87144 255 255 255 255 
-0.0674869 -0.017434 -0.0392102 -0.900755 -0.0580243 0.430434 255 255 255 255 
0.243059 -0.12377 -0.0304372 0.165736 -0.324258 -0.931337 255 255 255 255 
-0.175831 0.181136 -0.0553713 -0.492598 0.0702953 -0.867413 255 255 255 255 
-0.0912087 0.339047 -0.0338587 -0.588493 0.692984 -0.416473 255 255 255 255 
-0.163521 0.218674 -0.060907 -0.525842 0.164297 -0.834564 255 255 255 255 
-0.0715882 0.142368 0.0299302 0.268363 -0.384344 0.883324 255 255 255 255 
0.213076 0.289493 -0.0666165 0.470309 0.337663 -0.815348 255 255 255 255 
0.0236753 -0.0526746 -0.0386732 0.0554823 -0.119059 0.991336 255 255 255 255 
-0.0534105 0.133546 -0.113286 -0.448116 -0.0719813 -0.891073 255 255 255 255 
-0.082126 0.294101 -0.0813267 -0.389632 0.417658 -0.820822 255 255 255 255 
0.0296186 0.234458 0.0269823 0.22264 -0.284188 0.93256 255 255 255 255 
-0.121129 0.109841 0.0474313 0.227559 -0.255844 0.939554 255 255 255 255 
-0.21374 -0.00367699 0.019662 0.495456 -0.867132 0.0510397 255 255 255 255 
-0.0168633 0.139687 0.00673654 0.124388 -0.276177 0.953024 255 255 255 255 
0.194043 0.273875 -0.0840085 0.414658 0.29735 -0.860024 255 255 255 255 
-0.0563477 0.263498 -0.0965949 -0.226171 0.259236 -0.938959 255 255 255 255 
0.248141 -0.00448263 0.0183447 -0.308109 -0.0925472 0.946839 255 255 255 255 
0.105808 0.13234 0.00887688 -0.128522 -0.150113 0.98028 255 255 255 255 
0.234206 0.158342 0.0310653 -0.0230307 -0.129865 0.991264 255 255 255 255 
0.234882 -0.0946902 -0.042241 0.215972 -0.282265 -0.93471 255 255 255 255 
0.0233308 0.0956427 -0.120374 -0.038007 0.0215239 -0.999046 255 255 255 255 
0.281641 0.0990041 -0.00378843 0.82809 0.0898999 0.553339 255 255 255 255 
0.103717 -0.107656 -0.0904789 0.446123 -0.111225 -0.888033 255 255 255 255 
0.13898 0.141328 0.0168565 -0.148267 -0.143873 0.978426 255 255 255 255 
-0.181313 0.0334396 -0.0345404 0.304303 -0.565369 -0.766653 255 255 255 255 
0.0371942 0.266722 0.0359985 0.233851 -0.232137 0.944154 255 255 255 255 
-0.281871 0.0597862 0.0456024 -0.609809 0.745774 0.268241 255 255 255 255 
0.293098 -0.00401586 -0.00890592 0.922489 0.156404 0.352918 255 255 255 255 
-0.109709 0.318584 -0.00719865 -0.690992 0.691354 0.211095 255 255 255 255 
0.25827 0.227731 0.0157896 0.845659 0.162699 0.50832 255 255 255 255 
0.178661 -0.131908 0.0116469 -0.500201 0.193774 0.84395 255 255 255 255 
0.04661 -0.204407 -0.0889651 0.0583242 -0.322147 -0.944891 255 255 255 255 
0.125617 0.0442611 0.00358008 -0.154342 -0.229832 0.960914 255 255 255 255 
0.0949493 0.308632 -0.0953669 0.0313724 0.35639 -0.933811 255 255 255 255 
-0.254228 0.0974422 -0.0218428 -0.713792 0.684619 0.147641 255 255 255 255 
-0.300599 -0.0258372 0.0227137 -0.738552 -0.671369 -0.0616873 255 255 255 255 
