ply
format ascii 1.0
comment VCGLIB generated
element vertex 633
property float x
property float y
property float z
property float nx
property float ny
property float nz
property uchar red
property uchar green
property uchar blue
property uchar alpha
element face 0
property list uchar int vertex_indices
end_header
-0.140894 0.0930076 -0.156478 -0.336153 0.717011 -0.610652 255 255 255 255 
-0.106885 0.101717 -0.162316 -0.243603 0.713775 -0.656645 255 255 255 255 
-0.0836486 -0.117425 0.0357868 0.35395 -0.853177 0.383157 255 255 255 255 
0.0732912 0.070722 0.0418453 0.649574 -0.310924 0.693816 255 255 255 255 
0.0560985 0.147855 -0.0920165 0.414704 0.672724 -0.612751 255 255 255 255 
-0.0795344 0.145344 -0.130473 -0.200175 0.717353 -0.667334 255 255 255 255 
-0.1376 -0.134546 0.0459693 0.323291 -0.797706 0.509066 255 255 255 255 
0.220567 -0.052953 0.0963736 0.877123 -0.384719 -0.287482 255 255 255 255 
0.276537 0.0662112 0.149727 0.448744 0.389732 -0.8042 255 255 255 255 
-0.0234687 0.0969961 0.139018 0.343598 0.48443 0.804529 255 255 255 255 
-0.0328604 -0.0839348 0.0641494 0.102384 -0.598941 0.794221 255 255 255 255 
-0.244719 0.000154254 0.057907 -0.609831 0.224516 0.760065 255 255 255 255 
0.14433 -0.106889 0.0379623 0.0988548 -0.868845 0.485114 255 255 255 255 
-0.00490066 0.210618 0.185924 -0.152483 0.955828 0.25128 255 255 255 255 
-0.30476 -0.00583425 -0.0759828 -0.962326 0.255564 -0.0928254 255 255 255 255 
0.0369928 -0.100896 -0.320267 0.620953 -0.0244474 -0.783466 255 255 255 255 
0.036125 0.000353104 -0.268676 0.648127 0.623237 -0.437614 255 255 255 255 
-0.16828 0.0786715 0.0755819 -0.438929 0.451474 0.77686 255 255 255 255 
0.204928 -0.0740312 0.0581624 0.796833 -0.602637 -0.0434246 255 255 255 255 
-0.116195 -0.0147661 -0.326366 -0.110805 0.550282 -0.827594 255 255 255 255 
0.122135 0.0168704 0.0352762 -0.665628 0.709811 0.230453 255 255 255 255 
0.261594 -0.0284271 0.181489 0.362732 -0.618899 0.696699 255 255 255 255 
-0.248536 -0.0929189 -0.028833 -0.375432 -0.697296 0.610597 255 255 255 255 
0.0166743 0.0333959 0.107945 0.941265 -0.0334567 0.336008 255 255 255 255 
-0.0942931 -0.0633889 0.126211 0.608863 -0.202985 0.766866 255 255 255 255 
-0.262846 -0.119183 -0.0640694 -0.552767 -0.677706 0.484936 255 255 255 255 
-0.273372 -0.0636649 0.00794149 -0.822839 -0.53876 0.180757 255 255 255 255 
0.00305762 0.0333729 0.241652 -0.153624 -0.575619 -0.803158 255 255 255 255 
-0.0425037 0.119598 0.134403 -0.147267 0.620149 0.770537 255 255 255 255 
-0.196616 -0.156315 -0.330083 -0.508323 -0.421477 -0.750976 255 255 255 255 
0.00322505 -0.209393 -0.264605 0.44292 -0.896052 -0.0302073 255 255 255 255 
0.0328411 0.0662138 0.227702 0.171385 -0.695792 -0.697496 255 255 255 255 
0.110112 -0.0280007 0.0997393 -0.836969 -0.0688864 0.542897 255 255 255 255 
-0.241294 -0.0895681 0.076274 -0.67472 -0.167355 0.71885 255 255 255 255 
-0.134077 -0.00839902 0.127212 -0.211348 0.226257 0.950863 255 255 255 255 
-0.04792 0.2102 0.0109229 -0.10136 0.940946 0.323029 255 255 255 255 
-0.170324 0.129411 -0.0851403 -0.516469 0.726687 -0.452974 255 255 255 255 
0.0486741 -0.0691064 0.0430832 0.100789 -0.323635 0.940799 255 255 255 255 
-0.297709 -0.0910304 -0.101592 -0.916902 -0.393333 0.0676828 255 255 255 255 
-0.0686518 0.136195 0.109238 -0.353091 0.653311 0.66971 255 255 255 255 
0.036828 -0.18524 -0.272882 0.682072 -0.72195 -0.116475 255 255 255 255 
0.0032338 -0.162463 0.00193502 0.522027 -0.840269 0.14641 255 255 255 255 
0.175793 0.00272217 0.0208763 0.524918 0.820046 -0.228005 255 255 255 255 
-0.0918316 0.0524148 0.150772 -0.565085 0.313565 0.763122 255 255 255 255 
0.0988715 -0.16915 -0.155828 0.672338 -0.611891 -0.416594 255 255 255 255 
0.0685373 -0.134124 -0.28203 0.87354 -0.351005 -0.337229 255 255 255 255 
-0.123728 0.144649 -0.108303 -0.399765 0.71406 -0.574722 255 255 255 255 
-0.0279485 0.0321892 0.263807 -0.868686 -0.336092 -0.363905 255 255 255 255 
-0.306539 -0.0162042 -0.0843761 -0.969439 0.216657 -0.115099 255 255 255 255 
-0.0360622 -0.198965 -0.0916611 -0.0703877 -0.952116 0.297523 255 255 255 255 
0.0346031 0.200104 0.222437 0.20777 0.860482 0.46519 255 255 255 255 
-0.0593995 0.192289 0.0420786 -0.230473 0.842033 0.487712 255 255 255 255 
-0.0955135 -0.196562 -0.134351 -0.0989062 -0.981346 0.164855 255 255 255 255 
0.0411305 0.10298 0.157084 0.160395 -0.967013 0.197885 255 255 255 255 
0.205853 0.071161 0.161035 -0.368733 0.92274 0.112194 255 255 255 255 
-0.143303 -0.153767 -0.0337265 0.440489 -0.872875 -0.209902 255 255 255 255 
-0.0508925 -0.209759 -0.151497 -0.029142 -0.996094 0.0833496 255 255 255 255 
0.0133278 0.0192427 -0.262381 0.462085 0.761487 -0.45455 255 255 255 255 
0.0600191 0.126686 0.272247 0.817807 0.26771 0.509434 255 255 255 255 
0.230024 -0.0131061 0.0975572 0.824061 0.0200441 -0.566147 255 255 255 255 
-0.171178 -0.011134 -0.301921 -0.424324 0.677021 -0.601325 255 255 255 255 
0.0591673 0.217838 0.00671842 0.354513 0.928115 -0.113678 255 255 255 255 
0.0235931 0.0135338 -0.260169 0.540146 0.711855 -0.448892 255 255 255 255 
0.0980386 0.104853 -0.109782 0.580002 0.56824 -0.583696 255 255 255 255 
0.0313445 -0.213504 -0.126796 0.230181 -0.973103 -0.00936892 255 255 255 255 
0.0613793 -0.0928756 -0.305564 0.763895 0.0135823 -0.645198 255 255 255 255 
0.00290784 0.0248259 -0.261586 0.363909 0.806437 -0.46608 255 255 255 255 
0.014442 -0.128422 0.0246611 0.178586 -0.593922 0.784451 255 255 255 255 
-0.0451022 -0.219894 -0.314549 0.117492 -0.930351 -0.347337 255 255 255 255 
-0.0627606 -0.0241659 0.127329 0.164623 -0.593792 0.787598 255 255 255 255 
-0.0983516 -0.171496 -0.0405905 -0.0997316 -0.765362 0.635826 255 255 255 255 
-0.00185698 -0.094683 -0.331277 0.470297 0.032214 -0.88192 255 255 255 255 
0.0335773 -0.195918 -0.0625952 0.0120947 -0.885269 0.464922 255 255 255 255 
0.047378 0.17716 -0.0699681 0.40035 0.729984 -0.553935 255 255 255 255 
0.016696 -0.198727 -0.246405 0.515171 -0.856208 -0.0388051 255 255 255 255 
0.0253512 0.212389 0.192556 0.0400679 0.959118 0.280155 255 255 255 255 
-0.0885045 -0.00593884 0.144492 -0.368127 -0.609793 0.70188 255 255 255 255 
-0.1828 0.0975129 0.0562845 -0.459878 0.48516 0.743729 255 255 255 255 
-0.086597 0.00997683 -0.312315 -0.0660111 0.713745 -0.697288 255 255 255 255 
0.218949 0.0754554 0.157849 -0.302156 0.953004 0.0220398 255 255 255 255 
0.189984 -0.100519 -0.0129076 0.599865 -0.779702 0.179519 255 255 255 255 
0.115255 0.0890371 -0.109244 0.685704 0.502495 -0.526601 255 255 255 255 
-0.101231 -0.0987523 0.0843182 0.165917 -0.851383 0.497612 255 255 255 255 
-0.121163 -0.0212318 0.132811 -0.151484 0.177131 0.972459 255 255 255 255 
0.0839215 0.201391 0.0575028 0.826683 0.562311 0.0200437 255 255 255 255 
-0.101906 0.129883 0.0870487 -0.505912 0.604145 0.61568 255 255 255 255 
-0.0660639 0.156229 0.0869903 -0.331441 0.707235 0.624472 255 255 255 255 
-0.036079 -0.014783 -0.325264 0.161759 0.530824 -0.831901 255 255 255 255 
0.114763 0.0635066 0.00771294 0.763083 0.057429 0.643744 255 255 255 255 
-0.160491 0.0965735 -0.140228 -0.40543 0.715685 -0.568701 255 255 255 255 
0.0195826 0.21871 -0.019285 0.0338323 0.982477 -0.183285 255 255 255 255 
-0.0990578 0.160716 0.0543203 -0.447501 0.691493 0.56708 255 255 255 255 
0.166912 -0.00443496 -0.0580989 0.862683 0.463497 -0.202357 255 255 255 255 
-0.207269 -0.0962221 0.0963103 -0.216293 -0.143579 0.965713 255 255 255 255 
0.0132744 -0.0191474 0.296022 -0.159793 -0.98394 0.0795565 255 255 255 255 
0.0807992 -0.0122137 0.047702 0.150948 0.0743289 0.985743 255 255 255 255 
-0.129392 -0.0715026 0.126518 -0.344185 -0.202805 0.916737 255 255 255 255 
-0.311452 -0.0397747 -0.0782051 -0.996868 0.0633387 -0.0473608 255 255 255 255 
-0.240305 -0.0773091 -0.279244 -0.862831 0.312228 -0.397538 255 255 255 255 
-0.0266265 -0.112101 -0.336977 0.412473 -0.0253242 -0.910618 255 255 255 255 
-0.0309791 0.145762 0.131555 -0.909245 -0.389186 -0.147677 255 255 255 255 
-0.259014 -0.0578312 -0.224248 -0.809125 0.34472 -0.475905 255 255 255 255 
-0.140539 -0.0655192 0.123278 -0.355017 -0.189283 0.915497 255 255 255 255 
0.00136009 -0.0404043 0.0856215 0.61002 -0.444785 0.655776 255 255 255 255 
0.102202 -0.0109494 -0.167778 0.753161 0.253181 -0.607164 255 255 255 255 
0.097289 0.109661 -0.105442 0.576214 0.579078 -0.576755 255 255 255 255 
-0.134818 0.171277 -0.0666014 -0.508083 0.752138 -0.41969 255 255 255 255 
0.169964 -0.114935 -0.0108793 0.541111 -0.805827 0.240501 255 255 255 255 
-0.269206 -0.0758153 0.0139469 -0.841014 -0.508433 -0.184908 255 255 255 255 
-0.216782 0.0204978 -0.187218 -0.529949 0.671945 -0.517343 255 255 255 255 
-0.285665 0.0479879 -0.00900659 -0.914433 0.330575 0.233523 255 255 255 255 
0.0460741 -0.140457 0.00650726 0.0819726 -0.686806 0.722203 255 255 255 255 
-0.00539139 -0.16493 -0.0340339 0.0333357 -0.878968 0.475714 255 255 255 255 
0.150106 -0.133238 -0.0225762 0.513231 -0.804691 0.29844 255 255 255 255 
-0.208098 -0.1299 -0.0327068 -0.732931 -0.506517 -0.454151 255 255 255 255 
0.0732308 0.0396675 0.0380002 0.494204 0.0650207 0.866911 255 255 255 255 
0.0907784 -0.192193 -0.119791 0.486876 -0.867238 -0.104161 255 255 255 255 
0.0294263 -0.00479199 0.0551927 0.210943 0.0400613 0.976677 255 255 255 255 
0.0989257 0.172207 -0.0198071 0.791405 0.570955 -0.218376 255 255 255 255 
-0.145193 -0.0131077 0.126271 -0.298201 0.174414 0.938433 255 255 255 255 
-0.136509 -0.090859 0.0980002 0.0233873 -0.84608 0.532543 255 255 255 255 
-0.0203234 0.163284 -0.114577 0.176423 0.759145 -0.626557 255 255 255 255 
0.0643251 0.123187 0.184726 0.778576 -0.618257 0.107597 255 255 255 255 
-0.100119 0.00760618 -0.3144 -0.102545 0.686805 -0.719571 255 255 255 255 
-0.207139 0.125953 -0.0392056 -0.612573 0.741515 -0.273697 255 255 255 255 
-0.14379 -0.209916 -0.234614 -0.182542 -0.978571 -0.09527 255 255 255 255 
0.110453 -0.00695865 0.0819403 -0.700365 0.667424 0.253049 255 255 255 255 
0.0562715 0.0923776 0.2463 0.933779 -0.357587 -0.0137407 255 255 255 255 
0.0768687 -0.0373912 0.0504674 -0.00844397 -0.0135548 0.999872 255 255 255 255 
0.0543324 0.0983374 0.126442 0.388412 -0.902104 0.187998 255 255 255 255 
-0.00737973 0.0584615 -0.212422 0.251684 0.741653 -0.621776 255 255 255 255 
0.164589 0.0466483 0.120607 -0.237495 0.909995 -0.339861 255 255 255 255 
0.0746763 0.174222 -0.0544805 0.55343 0.683822 -0.475502 255 255 255 255 
0.0258133 0.00463954 0.257558 0.40201 -0.648213 -0.64669 255 255 255 255 
0.142144 -0.0312374 -0.127538 0.815115 0.16041 -0.556647 255 255 255 255 
0.0590195 0.102712 0.253531 0.932855 -0.360117 0.00983088 255 255 255 255 
-0.0825364 0.0984651 0.135807 -0.443628 0.512361 0.73531 255 255 255 255 
0.169063 -0.00529223 -0.0401244 0.797623 0.572384 -0.190196 255 255 255 255 
0.203559 -0.0643344 -0.00884663 0.964621 -0.169959 -0.201545 255 255 255 255 
0.104811 0.126671 0.0215024 0.937462 -0.00457175 0.348057 255 255 255 255 
-0.101993 -0.0480795 0.132684 0.383686 -0.083697 0.919663 255 255 255 255 
0.122113 0.0989352 -0.00696888 0.905283 0.149248 0.397727 255 255 255 255 
-0.291258 -0.0779852 -0.0470899 -0.778098 -0.522999 0.347902 255 255 255 255 
0.125304 -0.171197 -0.0959744 0.579409 -0.814985 0.00919793 255 255 255 255 
-0.0521253 0.0869544 0.154374 0.159736 0.528333 0.833876 255 255 255 255 
-0.128198 0.159774 -0.0878332 -0.451153 0.730491 -0.512682 255 255 255 255 
-0.0360731 -0.220945 -0.249099 0.1855 -0.9825 0.0168431 255 255 255 255 
-0.0548027 0.159894 -0.123674 -0.0507364 0.74638 -0.663583 255 255 255 255 
-0.169764 -0.0970991 0.0952519 -0.108153 -0.354482 0.928787 255 255 255 255 
-0.116285 0.0946245 -0.165833 -0.260194 0.717196 -0.646474 255 255 255 255 
-0.260873 0.0391259 0.0320163 -0.698365 0.265387 0.664722 255 255 255 255 
-0.283637 0.0486723 -0.058367 -0.864351 0.482902 -0.140371 255 255 255 255 
0.148948 -0.0802417 0.10401 -0.308629 -0.794633 0.522788 255 255 255 255 
0.0832204 -0.082396 0.0453998 -0.0712889 -0.454218 0.888034 255 255 255 255 
-0.198201 0.0880691 0.051682 -0.506842 0.435836 0.743746 255 255 255 255 
-0.170533 -0.0163642 -0.310959 -0.404645 0.633817 -0.659196 255 255 255 255 
0.0604174 0.0779293 -0.156753 0.489484 0.550989 -0.675882 255 255 255 255 
-0.0306996 -0.204444 -0.103407 -0.0815381 -0.959425 0.269918 255 255 255 255 
0.0843642 0.14189 0.170954 0.738773 -0.663521 0.118126 255 255 255 255 
0.0858493 0.185294 0.155546 0.897941 0.410071 0.159822 255 255 255 255 
-0.270422 0.0141956 -0.142292 -0.730944 0.537692 -0.420249 255 255 255 255 
-0.152243 -0.0469304 -0.331082 -0.250426 0.418715 -0.872906 255 255 255 255 
-0.152033 -0.0676328 0.115437 -0.337835 -0.215939 0.916099 255 255 255 255 
0.0420546 -0.178907 -0.226596 0.628725 -0.763788 -0.146058 255 255 255 255 
-0.0185415 0.156723 0.248401 -0.457639 0.619172 0.638116 255 255 255 255 
-0.0610244 -0.0461352 0.103271 0.381456 -0.51912 0.764857 255 255 255 255 
-0.174095 -0.181334 -0.326463 -0.400221 -0.481403 -0.779791 255 255 255 255 
0.0873337 0.161813 0.187953 0.920715 0.292383 0.25845 255 255 255 255 
0.117335 -0.115143 0.0265188 0.0794474 -0.774253 0.62787 255 255 255 255 
-0.0161978 0.0954611 0.205948 -0.67537 -0.523335 -0.519611 255 255 255 255 
-0.0900123 0.0899537 -0.178563 -0.16762 0.724196 -0.668912 255 255 255 255 
-0.19105 0.0214678 0.0837303 -0.559939 0.25344 0.78882 255 255 255 255 
0.194903 0.0654483 0.163423 -0.464622 0.841676 0.27515 255 255 255 255 
0.209298 -0.0514626 0.0300352 0.964719 -0.188141 -0.184174 255 255 255 255 
-0.026869 0.175459 0.0859118 -0.992326 0.00211308 -0.123629 255 255 255 255 
0.151499 0.0218735 -0.0362638 0.890548 0.450867 0.0603544 255 255 255 255 
-0.219928 -0.059201 0.0905784 -0.445198 0.0761459 0.892189 255 255 255 255 
-0.126423 0.192824 -0.02854 -0.614637 0.777108 0.135364 255 255 255 255 
0.0479961 -0.194496 -0.0586474 0.0410459 -0.875795 0.480935 255 255 255 255 
0.123697 -0.145001 -0.145844 0.773008 -0.440088 -0.456926 255 255 255 255 
-0.247467 -0.0618779 0.0732132 -0.654161 -0.00313712 0.756349 255 255 255 255 
-0.0441949 -0.020951 -0.327667 0.144056 0.501429 -0.853122 255 255 255 255 
-0.275282 0.0163782 -0.132132 -0.758765 0.521653 -0.390068 255 255 255 255 
-0.0393208 0.146869 0.107029 -0.14877 0.679774 0.718174 255 255 255 255 
-0.0733123 -0.0393107 0.115862 0.246478 -0.560893 0.790347 255 255 255 255 
0.121354 -0.0953162 -0.166844 0.841167 -0.0461976 -0.538798 255 255 255 255 
0.128848 -0.146107 -0.0178929 0.394769 -0.815824 0.422597 255 255 255 255 
0.138137 -0.0258135 -0.131122 0.805304 0.171573 -0.567494 255 255 255 255 
-0.2823 -0.0949778 -0.0553835 -0.731137 -0.575538 0.366325 255 255 255 255 
-0.253133 -0.147901 -0.211173 -0.821564 -0.520518 -0.232582 255 255 255 255 
-0.028628 -0.127599 0.0278091 -0.0694132 -0.694071 0.716552 255 255 255 255 
-0.0851102 -0.205185 -0.15796 -0.043117 -0.994229 0.0982279 255 255 255 255 
-0.046876 -0.0790534 0.0663811 0.16985 -0.641707 0.747906 255 255 255 255 
-0.0281914 0.0779215 0.239283 -0.907563 -0.285616 -0.30782 255 255 255 255 
-0.141486 0.00782915 -0.300621 -0.296708 0.731334 -0.614097 255 255 255 255 
-0.284731 -0.0216775 0.0194963 -0.867232 0.0445856 0.495903 255 255 255 255 
-0.204662 -0.178979 -0.272139 -0.601595 -0.774334 -0.196188 255 255 255 255 
0.0173227 -0.198079 -0.209011 0.453738 -0.885293 -0.101867 255 255 255 255 
0.0983212 0.154241 0.117089 0.977527 0.188829 0.0937241 255 255 255 255 
-0.179188 -0.133649 0.0733932 0.198392 -0.579945 0.79013 255 255 255 255 
-0.066308 -0.114241 0.0238846 0.13119 -0.80128 0.58373 255 255 255 255 
0.137995 -0.152023 -0.114059 0.800824 -0.449112 -0.396207 255 255 255 255 
-0.214124 0.032994 0.0596015 -0.544183 0.275481 0.792449 255 255 255 255 
-0.180203 0.0426567 0.0868482 -0.529916 0.313981 0.787785 255 255 255 255 
-0.277093 -0.0852761 -0.201529 -0.925107 -0.0625175 -0.374524 255 255 255 255 
-0.19912 0.0447306 0.067886 -0.550478 0.300894 0.778741 255 255 255 255 
-0.0491822 0.0692291 0.16521 0.203469 0.509401 0.836129 255 255 255 255 
-0.292091 -0.0413976 -0.160517 -0.909502 0.197874 -0.365585 255 255 255 255 
0.161822 -0.0232364 -0.0970953 0.858426 0.234358 -0.456269 255 255 255 255 
-0.132422 0.0616234 0.102478 -0.409198 0.410361 0.814961 255 255 255 255 
-0.1367 -0.214342 -0.275153 -0.269396 -0.955595 -0.119432 255 255 255 255 
-0.260172 -0.155443 -0.154741 -0.749215 -0.662316 0.00380782 255 255 255 255 
-0.0304905 0.0623593 -0.212371 0.115675 0.770077 -0.627376 255 255 255 255 
-0.132698 -0.148292 -0.0316174 0.458128 -0.868151 -0.190871 255 255 255 255 
0.228529 -0.0539373 0.120165 0.84913 -0.406444 -0.337315 255 255 255 255 
-0.189218 -0.0109574 -0.256533 -0.527734 0.722251 -0.447046 255 255 255 255 
-0.16895 -0.174447 0.0202391 0.399264 -0.916836 0.00028203 255 255 255 255 
0.125097 0.0597618 -0.119145 0.740607 0.397224 -0.541954 255 255 255 255 
0.0743057 -0.0647751 -0.251108 0.912081 0.179755 -0.368506 255 255 255 255 
-0.207808 -0.194166 -0.15695 -0.425529 -0.894165 0.139263 255 255 255 255 
0.0570945 -0.184179 -0.179961 0.543451 -0.784626 -0.298367 255 255 255 255 
0.174544 -0.108122 -0.0745125 0.886766 -0.289889 -0.360016 255 255 255 255 
-0.0179612 0.057091 -0.21674 0.192908 0.766806 -0.612205 255 255 255 255 
0.0904283 0.0311123 -0.164331 0.663066 0.375687 -0.647459 255 255 255 255 
-0.0460224 0.206336 0.0205168 -0.131901 0.921641 0.364938 255 255 255 255 
-0.202684 -0.142871 -0.0363843 -0.664037 -0.619885 -0.418088 255 255 255 255 
0.123757 0.051839 -0.124843 0.729383 0.373773 -0.57297 255 255 255 255 
0.217043 0.0280206 0.201674 -0.205074 0.204809 0.957078 255 255 255 255 
-0.265834 -0.106078 -0.220102 -0.921417 -0.172917 -0.347982 255 255 255 255 
0.230886 0.0829953 0.159587 -0.0374194 0.92772 -0.371398 255 255 255 255 
0.143963 0.0321906 0.0981054 -0.668957 0.729553 0.142297 255 255 255 255 
-0.272479 0.0359156 0.0221521 -0.783518 0.255129 0.566577 255 255 255 255 
-0.203627 0.0505705 0.062203 -0.544134 0.311566 0.779003 255 255 255 255 
0.0343036 0.094139 0.129895 0.189521 -0.960144 0.205441 255 255 255 255 
0.219925 0.0173815 0.0962363 0.563746 0.457034 -0.687975 255 255 255 255 
0.222196 -0.0380022 0.0847119 0.906079 -0.26773 -0.327629 255 255 255 255 
0.197674 -0.0823433 0.0524171 0.668032 -0.74127 0.0652151 255 255 255 255 
0.0800918 -0.0548228 -0.220405 0.879284 0.211593 -0.426717 255 255 255 255 
0.12446 0.0861849 -0.00644762 0.884695 0.144814 0.443106 255 255 255 255 
-0.233959 -0.178419 -0.155178 -0.580875 -0.810328 0.0771491 255 255 255 255 
-0.172892 -0.162502 -0.0754229 -0.120035 -0.892654 0.434466 255 255 255 255 
0.0949504 -0.094122 0.0421347 -0.0691675 -0.584614 0.808358 255 255 255 255 
0.0692215 -0.150427 -0.222667 0.77821 -0.551781 -0.299878 255 255 255 255 
-0.115028 -0.201741 -0.145044 -0.0624303 -0.974758 0.214357 255 255 255 255 
-0.0447117 0.080728 -0.193924 0.0238848 0.738305 -0.674044 255 255 255 255 
-0.0633123 0.130871 -0.147796 -0.113686 0.712893 -0.691996 255 255 255 255 
0.13055 0.00811904 -0.132145 0.766868 0.247222 -0.592279 255 255 255 255 
-0.0462736 -0.223972 -0.3018 0.109507 -0.960699 -0.255079 255 255 255 255 
0.0390248 0.0900794 0.202637 0.213515 -0.744866 -0.632128 255 255 255 255 
0.147263 0.0328672 0.140161 -0.707908 0.61244 0.351828 255 255 255 255 
-0.287372 -0.0336932 -0.166085 -0.871818 0.279403 -0.402327 255 255 255 255 
0.258622 0.0336348 0.127737 0.630691 0.17323 -0.756453 255 255 255 255 
0.0945856 0.137749 0.0730498 0.94633 -0.265935 0.18368 255 255 255 255 
0.0666461 -0.0387993 -0.250131 0.859775 0.327205 -0.392078 255 255 255 255 
-0.203079 -0.1862 -0.23422 -0.549121 -0.818675 -0.168037 255 255 255 255 
-0.242776 0.0665926 -0.103611 -0.628673 0.674024 -0.387893 255 255 255 255 
0.24593 -0.0157199 0.120217 0.806185 -0.169952 -0.566729 255 255 255 255 
0.0620125 -0.153718 -0.26061 0.819616 -0.528679 -0.220746 255 255 255 255 
-0.064393 -0.129051 0.0011743 0.102424 -0.746525 0.657426 255 255 255 255 
0.0311066 0.220895 -0.00780156 0.0516966 0.989929 -0.131789 255 255 255 255 
0.0692311 0.213941 0.125314 0.771471 0.629689 0.0912366 255 255 255 255 
-0.118824 -0.179022 -0.0890808 -0.0812992 -0.916292 0.392174 255 255 255 255 
-0.29546 -0.0922763 -0.0868688 -0.862324 -0.473116 0.180437 255 255 255 255 
-0.017118 0.0158877 -0.304191 0.232712 0.75874 -0.608407 255 255 255 255 
0.126391 0.104471 -0.0704261 0.815429 0.496504 -0.297588 255 255 255 255 
-0.230903 0.0733115 -0.105633 -0.592301 0.693532 -0.410112 255 255 255 255 
-0.0991262 -0.08489 -0.336527 -0.013664 0.255419 -0.966734 255 255 255 255 
0.275941 -0.00733488 0.152971 0.763973 -0.25584 -0.592361 255 255 255 255 
-0.158463 -0.204388 -0.297857 -0.408054 -0.886272 -0.219121 255 255 255 255 
0.0727379 0.0987105 -0.132175 0.490181 0.574438 -0.655548 255 255 255 255 
-0.183447 -0.203157 -0.155441 -0.273629 -0.941818 0.19521 255 255 255 255 
-0.167817 -0.14755 -0.342471 -0.345665 -0.212283 -0.91403 255 255 255 255 
0.0247381 0.0245564 0.247841 0.177175 -0.614044 -0.769128 255 255 255 255 
0.0278969 0.0323228 0.0537544 0.305298 0.117662 0.94496 255 255 255 255 
-0.242553 0.0583192 0.0365666 -0.593373 0.304213 0.745227 255 255 255 255 
0.063811 -0.153026 -0.00574392 0.0737981 -0.740829 0.667627 255 255 255 255 
-0.1264 0.0682727 -0.188349 -0.245839 0.743867 -0.621471 255 255 255 255 
-0.0363519 -0.133628 0.0165455 -0.0581219 -0.708786 0.703025 255 255 255 255 
-0.12796 0.171951 0.0116849 -0.484149 0.736633 0.4722 255 255 255 255 
-0.281387 -0.0264114 -0.170987 -0.818135 0.372615 -0.437965 255 255 255 255 
-0.201008 -0.0852946 0.0979133 -0.254426 -0.0633133 0.965018 255 255 255 255 
0.00284807 0.170813 0.250705 -0.286032 0.680042 0.675077 255 255 255 255 
0.121236 0.0158083 -0.140473 0.738229 0.273186 -0.616755 255 255 255 255 
-0.142794 -0.0610216 -0.333542 -0.189748 0.343311 -0.919855 255 255 255 255 
-0.136598 -0.211535 -0.222639 -0.123382 -0.989516 -0.0750677 255 255 255 255 
-0.223033 -0.186454 -0.1672 -0.535604 -0.843211 0.0460828 255 255 255 255 
0.269726 0.000832551 0.200132 0.397141 -0.483619 0.779994 255 255 255 255 
-0.0914697 -0.190871 -0.113168 -0.128985 -0.973474 0.188973 255 255 255 255 
0.142076 -0.137935 -0.0200967 0.483679 -0.809538 0.33272 255 255 255 255 
-0.0170807 -0.139724 -0.331181 0.467851 -0.168642 -0.867568 255 255 255 255 
-0.0263019 0.100256 0.289123 -0.570413 0.441011 0.69292 255 255 255 255 
0.156281 0.00910379 0.00487325 0.558451 0.818382 -0.135585 255 255 255 255 
-0.0618383 0.0563641 -0.218887 -0.0293483 0.799554 -0.599877 255 255 255 255 
0.0277441 0.0778065 0.0886331 0.488231 -0.500917 0.714641 255 255 255 255 
0.0571566 0.214609 -0.0155125 0.438843 0.852411 -0.284275 255 255 255 255 
0.212792 -0.0403213 0.189102 -0.00402978 -0.693217 0.720717 255 255 255 255 
0.177108 0.0444457 0.174932 -0.590599 0.622664 0.513306 255 255 255 255 
0.232974 0.0102842 0.20738 -0.114997 0.124828 0.985492 255 255 255 255 
-0.154456 0.0580721 0.0952392 -0.394664 0.406995 0.823769 255 255 255 255 
-0.0443773 -0.213 -0.196503 0.0802441 -0.995873 0.0424043 255 255 255 255 
-0.268217 -0.0129171 0.0439547 -0.752542 0.149601 0.641326 255 255 255 255 
0.119482 0.107357 -0.0820008 0.744666 0.532232 -0.402742 255 255 255 255 
-0.17738 -0.205615 -0.213265 -0.346843 -0.929671 -0.124148 255 255 255 255 
-0.307177 -0.0401776 -0.109618 -0.977359 0.105878 -0.18319 255 255 255 255 
0.148299 -0.0243803 0.158964 -0.669681 -0.29602 0.681102 255 255 255 255 
-0.276596 -0.125045 -0.17373 -0.90433 -0.370405 -0.212104 255 255 255 255 
-0.122734 0.182643 0.00211809 -0.51763 0.747266 0.416717 255 255 255 255 
-0.226676 -0.0763955 -0.313512 -0.716403 0.313616 -0.623227 255 255 255 255 
-0.209015 -0.188729 -0.212227 -0.547581 -0.824654 -0.141778 255 255 255 255 
-0.288726 -0.0453642 -0.170215 -0.89648 0.204975 -0.392821 255 255 255 255 
0.101538 0.012773 -0.161092 0.711987 0.303119 -0.633398 255 255 255 255 
-0.00392846 0.190057 0.227475 -0.351276 0.725323 0.59204 255 255 255 255 
0.0345612 0.0168906 0.252843 0.438047 -0.613303 -0.657248 255 255 255 255 
0.0575065 0.103072 0.142157 0.493829 -0.853632 0.165667 255 255 255 255 
0.0176418 0.216019 0.155678 -0.102796 0.984792 0.14006 255 255 255 255 
0.0980917 -0.188975 -0.111509 0.514538 -0.853564 -0.081723 255 255 255 255 
-0.239962 -0.0403297 -0.2339 -0.708006 0.51856 -0.479399 255 255 255 255 
0.120335 -0.165172 -0.0434129 0.497507 -0.825479 0.266593 255 255 255 255 
-0.0975243 0.0589401 0.143407 -0.551806 0.343591 0.759905 255 255 255 255 
-0.293896 -0.0331412 -0.150879 -0.901973 0.245562 -0.355166 255 255 255 255 
-0.22769 -0.0531584 0.0859024 -0.511707 0.0861018 0.854835 255 255 255 255 
-0.152635 -0.154869 -0.0451033 0.399948 -0.886819 -0.231504 255 255 255 255 
-0.101991 -0.189171 -0.332124 -0.0925272 -0.530015 -0.842925 255 255 255 255 
-0.179845 0.128452 -0.0758703 -0.541801 0.729001 -0.41834 255 255 255 255 
0.0777164 -0.0477494 -0.221636 0.868933 0.243607 -0.430826 255 255 255 255 
0.0549871 -0.0313186 0.0508999 0.0723105 -0.0396408 0.996594 255 255 255 255 
-0.258503 -0.11251 -0.0537102 -0.469274 -0.685036 0.557231 255 255 255 255 
0.147871 -0.0480414 -0.124499 0.831504 0.113329 -0.543836 255 255 255 255 
-0.116786 0.136825 -0.121493 -0.354467 0.710249 -0.608193 255 255 255 255 
-0.00547912 0.112092 0.113048 -0.689827 -0.707284 -0.15456 255 255 255 255 
0.0185459 0.20815 0.209568 0.0858642 0.919952 0.382511 255 255 255 255 
0.0476636 0.0433107 0.315689 0.0402815 0.264773 0.963469 255 255 255 255 
-0.0343309 0.182759 -0.095296 0.14445 0.803157 -0.577991 255 255 255 255 
0.0988701 0.16257 0.0633517 0.992512 -0.0072327 0.12193 255 255 255 255 
-0.03289 0.178313 0.157983 -0.904368 0.425235 0.0359608 255 255 255 255 
-0.0879467 0.0617725 0.151816 -0.52188 0.365706 0.770649 255 255 255 255 
-0.220854 -0.172681 -0.236173 -0.642017 -0.744932 -0.181359 255 255 255 255 
0.144758 -0.0811386 0.0988706 -0.296458 -0.801614 0.51916 255 255 255 255 
0.143777 0.0708745 -0.053699 0.936182 0.351126 0.0165795 255 255 255 255 
-0.236597 0.0611201 -0.117612 -0.598572 0.677459 -0.427505 255 255 255 255 
0.00363144 0.214884 0.117428 -0.195268 0.978807 0.0617069 255 255 255 255 
0.0645799 -0.0748631 -0.298229 0.824365 0.138792 -0.54878 255 255 255 255 
0.0985605 -0.136438 -0.186922 0.781792 -0.434902 -0.446835 255 255 255 255 
0.124348 -0.130795 -0.155824 0.811562 -0.31758 -0.490418 255 255 255 255 
0.0355334 0.00218779 0.265471 0.44796 -0.664784 -0.597825 255 255 255 255 
0.163314 0.0266351 0.175277 -0.652107 0.545206 0.526789 255 255 255 255 
-0.0976481 0.0816633 0.133454 -0.517293 0.435104 0.736948 255 255 255 255 
0.152056 0.0129633 0.0223627 0.451915 0.877204 -0.162132 255 255 255 255 
0.150747 0.0134129 -0.101604 0.845445 0.296656 -0.444091 255 255 255 255 
0.176618 0.0174385 0.0631698 0.38145 0.844053 -0.376922 255 255 255 255 
0.208661 -0.0583247 0.0355852 0.957045 -0.232762 -0.172876 255 255 255 255 
-0.167131 -0.170206 -0.335016 -0.358385 -0.411 -0.838236 255 255 255 255 
-0.218892 -0.123245 -0.327719 -0.629282 -0.120971 -0.767704 255 255 255 255 
0.042155 0.213291 0.178941 0.123194 0.960986 0.247647 255 255 255 255 
0.0278258 0.144099 -0.111069 0.345411 0.690327 -0.63572 255 255 255 255 
0.00242475 0.0397401 -0.23161 0.342255 0.765869 -0.54434 255 255 255 255 
-0.160984 -0.204564 -0.148823 -0.153785 -0.955006 0.253603 255 255 255 255 
-0.250558 -0.0228312 0.0629679 -0.635646 0.16274 0.754632 255 255 255 255 
-0.0792362 -0.195531 -0.0946204 -0.202154 -0.690116 -0.694891 255 255 255 255 
0.0357818 0.105849 0.3002 0.0495159 0.423413 0.904582 255 255 255 255 
0.183131 0.0438785 0.107025 0.0924389 0.841566 -0.532187 255 255 255 255 
0.0675698 0.168499 0.235708 0.826821 0.39983 0.395604 255 255 255 255 
0.0887693 -0.128026 -0.207385 0.852047 -0.326916 -0.40883 255 255 255 255 
0.105631 0.153588 0.0157872 0.969832 0.178919 0.165571 255 255 255 255 
-0.206365 -0.176157 -0.2843 -0.61119 -0.757642 -0.228966 255 255 255 255 
-0.197711 0.0107006 -0.21401 -0.492593 0.708397 -0.505496 255 255 255 255 
-0.00761897 -0.106063 0.0474073 0.137016 -0.574431 0.807004 255 255 255 255 
-0.0852732 -0.170119 -0.0363174 -0.0145402 -0.750087 0.661179 255 255 255 255 
0.0263251 0.0733432 -0.181443 0.409679 0.626929 -0.662664 255 255 255 255 
0.0872948 -0.195289 -0.0855266 0.441333 -0.89482 0.0672513 255 255 255 255 
0.239625 0.0617193 0.13223 0.372504 0.519314 -0.769126 255 255 255 255 
-0.162252 -0.0105409 -0.311278 -0.369656 0.658371 -0.655669 255 255 255 255 
-0.297519 -0.0917845 -0.125801 -0.940659 -0.336743 -0.0420164 255 255 255 255 
0.251762 0.0570786 0.134367 0.440088 0.419232 -0.794083 255 255 255 255 
-0.1145 0.119472 0.0812431 -0.534539 0.563866 0.629542 255 255 255 255 
0.116435 -0.176928 -0.115003 0.610878 -0.777238 -0.150763 255 255 255 255 
0.117937 0.00205067 0.0858474 -0.704811 0.670356 0.232086 255 255 255 255 
0.0112308 -0.212921 -0.105213 0.0404165 -0.974786 0.21945 255 255 255 255 
-0.13697 0.0497149 0.106271 -0.354125 0.386883 0.851421 255 255 255 255 
-0.0714815 0.184374 0.0476733 -0.296032 0.794766 0.529823 255 255 255 255 
-0.187022 -0.175882 0.0152347 -0.435643 -0.877759 -0.199387 255 255 255 255 
0.061773 0.0442501 0.279839 0.932739 -0.306193 -0.190379 255 255 255 255 
0.146039 0.0533236 -0.0415305 0.934535 0.324789 0.145452 255 255 255 255 
-0.153202 -0.186792 -0.115671 -0.0988943 -0.915524 0.389917 255 255 255 255 
-0.11003 -0.0855526 0.111514 0.0334817 -0.877502 0.478402 255 255 255 255 
-0.0573916 0.157239 0.0900288 -0.289031 0.713952 0.637757 255 255 255 255 
-0.08239 -0.208059 -0.171272 -0.0149912 -0.997379 0.070786 255 255 255 255 
0.172135 -0.104336 -0.0831029 0.883991 -0.245976 -0.397563 255 255 255 255 
-0.300426 0.0122924 -0.0405954 -0.961363 0.262914 0.0815878 255 255 255 255 
0.0872919 -0.0368994 0.0544467 -0.834345 -0.0563838 0.548351 255 255 255 255 
0.0133776 -0.203442 -0.304375 0.558052 -0.815706 -0.152321 255 255 255 255 
-0.24308 0.0139498 -0.172148 -0.613428 0.616713 -0.493327 255 255 255 255 
0.0145924 -0.149886 0.0137219 0.473114 -0.745248 0.46986 255 255 255 255 
-0.0682656 0.177986 0.0583895 -0.300299 0.777301 0.552832 255 255 255 255 
0.158696 -0.104291 0.0427759 0.121418 -0.894181 0.430926 255 255 255 255 
-0.257409 0.0901449 -0.00807736 -0.693964 0.71286 -0.101219 255 255 255 255 
0.1966 -0.000836083 0.0468287 0.678659 0.622387 -0.389945 255 255 255 255 
-0.0411702 -0.20884 -0.130981 -0.0706628 -0.986112 0.150297 255 255 255 255 
-0.290916 -0.00162878 -0.12443 -0.862082 0.394442 -0.318166 255 255 255 255 
-0.165978 -0.201835 -0.144406 -0.163721 -0.943407 0.288406 255 255 255 255 
-0.224626 -0.106579 -0.00473627 -0.612729 -0.553714 -0.563882 255 255 255 255 
-0.215274 0.0498056 0.0539176 -0.542114 0.300503 0.784736 255 255 255 255 
-0.0576004 0.202789 -0.0739706 0.0203671 0.852014 -0.523123 255 255 255 255 
0.140617 -0.0530462 0.137666 -0.62866 -0.449537 0.634589 255 255 255 255 
-0.105818 -0.211687 -0.195853 -0.0212814 -0.999172 0.0346857 255 255 255 255 
0.0364521 0.20913 0.200707 0.159295 0.924486 0.346338 255 255 255 255 
-0.244562 -0.17035 -0.161906 -0.651056 -0.758671 0.0233108 255 255 255 255 
0.138014 0.0828993 -0.034662 0.935137 0.281711 0.214844 255 255 255 255 
0.0971199 -0.0701147 -0.194267 0.85559 0.125908 -0.502108 255 255 255 255 
0.0710528 0.0489803 0.037311 0.553358 -0.0437733 0.831792 255 255 255 255 
-0.0403979 0.203353 0.0297659 -0.144023 0.921128 0.361636 255 255 255 255 
-0.256537 0.0533335 0.0299425 -0.668529 0.292597 0.683708 255 255 255 255 
-0.302139 -0.0757725 -0.0742913 -0.897933 -0.403136 0.176628 255 255 255 255 
-0.206881 -0.00423072 0.0789349 -0.529386 0.218436 0.819778 255 255 255 255 
0.271304 0.0735429 0.151027 0.425979 0.419043 -0.801838 255 255 255 255 
-0.121803 -0.217663 -0.306908 -0.202447 -0.942033 -0.267562 255 255 255 255 
-0.0606366 -0.111359 0.0326642 -0.144541 -0.716256 0.682704 255 255 255 255 
0.0793672 0.107098 0.0665795 0.725247 -0.405132 0.556673 255 255 255 255 
0.151741 -0.0931759 -0.123425 0.856983 -0.0973233 -0.506071 255 255 255 255 
-0.120947 -0.104736 0.0739881 0.157468 -0.82131 0.548318 255 255 255 255 
0.0462332 -0.162287 -0.0156127 0.0506108 -0.77826 0.625899 255 255 255 255 
0.0733473 0.190308 0.199882 0.879595 0.376157 0.291235 255 255 255 255 
0.0558688 -0.111792 0.0246705 0.0758006 -0.563481 0.822644 255 255 255 255 
-0.274161 -0.12711 -0.179146 -0.90238 -0.36452 -0.229858 255 255 255 255 
0.104494 -0.0448998 0.0829038 -0.837168 -0.0734116 0.541996 255 255 255 255 
-0.252347 0.0152598 -0.16124 -0.643018 0.599649 -0.476392 255 255 255 255 
-0.0794968 0.135966 -0.138932 -0.191893 0.711959 -0.675494 255 255 255 255 
-0.0645747 0.0106755 0.165288 -0.0117757 -0.611584 0.791092 255 255 255 255 
0.021941 -0.168348 -0.319686 0.563597 -0.360805 -0.743087 255 255 255 255 
-0.0207232 -0.00151484 0.30714 -0.89993 -0.43417 0.0402789 255 255 255 255 
0.212627 -0.0618327 0.0766895 0.872294 -0.457153 -0.173534 255 255 255 255 
0.188123 -0.018029 -0.014876 0.705046 0.665416 -0.245215 255 255 255 255 
0.0399239 0.00370113 -0.249342 0.654628 0.610011 -0.446486 255 255 255 255 
-0.00158725 0.168257 -0.100335 0.252339 0.761315 -0.597264 255 255 255 255 
-0.175495 0.137249 -0.0672598 -0.547976 0.73553 -0.398394 255 255 255 255 
0.0405252 -0.191656 -0.185082 0.485704 -0.844197 -0.226765 255 255 255 255 
0.081631 0.116325 0.107237 0.670677 -0.732104 0.11923 255 255 255 255 
-0.271644 -0.140463 -0.126794 -0.771392 -0.625625 0.116394 255 255 255 255 
-0.149802 -0.187702 -0.328546 -0.286062 -0.482428 -0.827908 255 255 255 255 
0.0822657 0.0285883 -0.172569 0.657443 0.397844 -0.639913 255 255 255 255 
-0.0918432 -0.22243 -0.304665 -0.076455 -0.961529 -0.263851 255 255 255 255 
0.155028 0.0248965 -0.0611724 0.914572 0.401451 -0.0489453 255 255 255 255 
0.119758 -0.123017 0.0165997 0.140435 -0.784888 0.603514 255 255 255 255 
0.0406396 -0.0563117 0.0469928 0.163076 -0.249849 0.954454 255 255 255 255 
-0.0229709 0.000108328 0.285435 -0.917789 -0.391416 -0.0667629 255 255 255 255 
-0.261964 0.0213274 -0.143484 -0.684337 0.580564 -0.441166 255 255 255 255 
-0.100435 0.194805 0.0119993 -0.472861 0.759961 0.445938 255 255 255 255 
0.100275 0.176366 0.00701123 0.906622 0.421705 -0.0142308 255 255 255 255 
-0.0903541 -0.1328 -2.24788e-005 0.137404 -0.772571 0.619882 255 255 255 255 
0.167606 -0.111718 -0.0876573 0.875965 -0.274155 -0.396893 255 255 255 255 
-0.0661896 0.169138 0.0713757 -0.308241 0.750547 0.584523 255 255 255 255 
-0.0419219 -0.160691 -0.338079 0.376034 -0.269094 -0.886672 255 255 255 255 
0.102166 0.106235 0.0235458 0.880397 -0.0657241 0.469661 255 255 255 255 
-0.14566 0.154272 -0.0771048 -0.502046 0.736023 -0.454115 255 255 255 255 
0.00948905 0.195809 0.228311 -0.220354 0.777828 0.588581 255 255 255 255 
-0.172638 0.0147023 -0.230075 -0.430057 0.758538 -0.489562 255 255 255 255 
0.0433724 0.138154 -0.108606 0.381516 0.669372 -0.637485 255 255 255 255 
0.0450572 0.00276941 0.272858 0.630673 -0.61125 -0.478148 255 255 255 255 
-0.183959 -0.081688 -0.335289 -0.439763 0.276078 -0.854628 255 255 255 255 
-0.114943 0.070403 0.116959 -0.534961 0.39207 0.748397 255 255 255 255 
0.121677 -0.00853266 0.129737 -0.793517 -0.112767 0.598009 255 255 255 255 
-0.0946858 0.0355203 -0.24446 -0.161647 0.835122 -0.525777 255 255 255 255 
-0.0348797 0.216191 -0.0285002 0.0470846 0.997003 -0.0613813 255 255 255 255 
-0.228905 -0.0706701 -0.304596 -0.757939 0.365727 -0.54016 255 255 255 255 
0.00307741 0.0273917 0.244391 0.00207793 -0.599092 -0.800678 255 255 255 255 
0.259083 0.0126625 0.206215 0.123226 0.0130884 0.992292 255 255 255 255 
-0.308451 -0.0168826 -0.067724 -0.98193 0.185667 -0.036612 255 255 255 255 
-0.121886 -0.165693 -0.0463889 -0.146091 -0.794434 0.589519 255 255 255 255 
-0.170234 0.154783 -0.0433572 -0.57544 0.761353 -0.29868 255 255 255 255 
-0.0511145 0.0339184 -0.261991 0.0316099 0.863875 -0.502713 255 255 255 255 
-0.0856645 0.0592384 -0.21058 -0.122583 0.784011 -0.608523 255 255 255 255 
-0.258651 -0.0378941 0.0601325 -0.683047 0.0962562 0.724003 255 255 255 255 
0.0316029 0.212508 -0.0366344 0.214111 0.905313 -0.366831 255 255 255 255 
-0.258234 -0.0906762 0.0111054 -0.75362 -0.547347 -0.363962 255 255 255 255 
0.0830625 -0.0792383 -0.22712 0.915441 0.0954891 -0.390961 255 255 255 255 
-0.00246 0.212421 0.0624937 -0.172051 0.983443 0.0568977 255 255 255 255 
0.0586766 -0.079504 -0.306606 0.744412 0.107352 -0.659034 255 255 255 255 
-0.164096 -0.104522 0.0851034 0.158313 -0.571465 0.805211 255 255 255 255 
-0.232856 -0.105371 0.0792468 -0.658685 -0.256085 0.707499 255 255 255 255 
0.0247784 0.0844185 0.3077 0.00632171 0.329614 0.944095 255 255 255 255 
0.0208595 -0.0158292 0.0572219 0.209986 -0.0359171 0.977044 255 255 255 255 
-0.246625 -0.0814108 -0.26382 -0.878547 0.283806 -0.3842 255 255 255 255 
-0.174076 -0.177236 0.0104911 0.394424 -0.918512 -0.0276816 255 255 255 255 
-0.0801939 0.14853 0.0871025 -0.401595 0.675968 0.617891 255 255 255 255 
-0.18544 -0.199071 -0.145838 -0.257837 -0.930554 0.259978 255 255 255 255 
0.196456 0.0407149 0.104622 0.245109 0.730802 -0.637063 255 255 255 255 
-0.228448 -0.181364 -0.184688 -0.602457 -0.79629 -0.0544743 255 255 255 255 
-0.185001 -0.187185 -0.120973 -0.216771 -0.903732 0.36916 255 255 255 255 
0.178943 -0.0151717 -0.0329176 0.76929 0.596777 -0.228144 255 255 255 255 
-0.307925 -0.0396514 -0.0399578 -0.959281 -0.114485 0.258212 255 255 255 255 
0.00784062 -0.170509 -0.0347394 0.0060216 -0.848759 0.528746 255 255 255 255 
-0.174011 -0.0146079 0.109193 -0.50157 0.121128 0.856595 255 255 255 255 
0.00691491 -0.0503011 -0.327012 0.439782 0.279209 -0.853601 255 255 255 255 
0.0733663 -0.00845332 -0.203281 0.755987 0.375273 -0.536333 255 255 255 255 
-0.174583 -0.0268571 0.110147 -0.479581 0.0573912 0.875619 255 255 255 255 
-0.25332 -0.103563 -0.253911 -0.940758 0.00763025 -0.338992 255 255 255 255 
-0.0825415 0.175548 -0.101357 -0.225998 0.754226 -0.616496 255 255 255 255 
0.0469984 0.203297 0.209654 0.214821 0.891993 0.397744 255 255 255 255 
0.117938 0.051096 0.00709789 0.750336 0.0902988 0.65486 255 255 255 255 
-0.303553 -0.0157107 -0.0995932 -0.948453 0.25376 -0.189847 255 255 255 255 
-0.0405762 0.0341569 -0.260747 0.0908005 0.864137 -0.494998 255 255 255 255 
-0.205106 0.0299907 0.0673114 -0.552273 0.272065 0.78802 255 255 255 255 
-0.0311808 -0.220964 -0.306951 0.185626 -0.935715 -0.299967 255 255 255 255 
-0.0852859 -0.213548 -0.21001 0.000638297 -0.998802 0.0489397 255 255 255 255 
-0.0329637 0.0881343 0.250825 -0.979172 -0.155193 -0.130909 255 255 255 255 
-0.00763326 -0.00264033 0.26934 -0.410729 -0.631338 -0.65781 255 255 255 255 
-0.0295673 -0.191618 -0.0719827 -0.0218226 -0.908577 0.417146 255 255 255 255 
0.131053 0.0320428 -0.124824 0.761911 0.31288 -0.567095 255 255 255 255 
0.210845 0.0208472 0.09286 0.435266 0.60547 -0.666296 255 255 255 255 
0.0300611 -0.188216 -0.228764 0.570061 -0.815549 -0.0995522 255 255 255 255 
0.0336715 0.222112 0.0107657 0.0732625 0.994729 -0.071738 255 255 255 255 
0.0619555 -0.134875 -0.302166 0.794564 -0.25318 -0.551876 255 255 255 255 
-0.263636 -0.0478881 0.0562766 -0.715854 0.042088 0.69698 255 255 255 255 
-0.108395 -0.134218 0.0105251 0.289811 -0.898323 0.33019 255 255 255 255 
-0.147618 0.121723 -0.117741 -0.424066 0.714292 -0.556735 255 255 255 255 
-0.0882115 -0.165126 -0.0314713 -0.00847731 -0.738925 0.673735 255 255 255 255 
0.224822 0.0349455 0.202025 -0.179663 0.232353 0.955894 255 255 255 255 
-0.146938 0.082392 0.0822561 -0.431454 0.475829 0.766442 255 255 255 255 
0.0267154 -0.194808 -0.198438 0.471014 -0.867696 -0.158902 255 255 255 255 
0.0109724 -0.210339 -0.096563 0.016587 -0.960562 0.27757 255 255 255 255 
0.0722946 0.0700817 -0.155496 0.532937 0.512642 -0.673184 255 255 255 255 
-0.11764 -0.201319 -0.324308 -0.160922 -0.547134 -0.821431 255 255 255 255 
-0.261807 -0.0310126 -0.201339 -0.745827 0.448436 -0.492592 255 255 255 255 
-0.133177 -0.0664283 0.126626 -0.346455 -0.190401 0.91854 255 255 255 255 
0.0221034 0.0120029 0.0661892 0.974007 -0.0347787 0.223833 255 255 255 255 
-0.105883 0.133943 0.077251 -0.504054 0.613586 0.607817 255 255 255 255 
0.021302 -0.175731 -0.0389271 -0.00126653 -0.845488 0.533992 255 255 255 255 
0.0195124 0.0204775 0.321 -0.149211 0.214313 0.965301 255 255 255 255 
-0.0264132 0.136013 0.125819 -0.883187 -0.443832 -0.151636 255 255 255 255 
-0.0353409 0.162824 0.212612 -0.972637 0.228523 0.0418755 255 255 255 255 
0.0835498 0.169688 0.193148 0.905542 0.322467 0.275698 255 255 255 255 
0.18691 0.00483425 0.0432157 0.551356 0.762611 -0.338276 255 255 255 255 
-0.0660171 -0.200525 -0.12496 -0.115499 -0.981651 0.151726 255 255 255 255 
0.0439691 0.0722612 -0.171271 0.464031 0.580721 -0.668909 255 255 255 255 
-0.235804 -0.0330274 -0.231098 -0.676079 0.555964 -0.48355 255 255 255 255 
0.0489094 0.0938994 0.109345 0.430272 -0.873713 0.226916 255 255 255 255 
-0.0226331 -0.157057 -0.0187325 0.0898255 -0.993199 -0.0740735 255 255 255 255 
-0.0424112 0.214193 -0.00163526 -0.0227574 0.986262 0.163613 255 255 255 255 
-0.0324683 0.206562 0.0246318 -0.124284 0.940545 0.316114 255 255 255 255 
0.103252 0.137537 -0.0657602 0.675288 0.601126 -0.427356 255 255 255 255 
0.176203 -0.0750657 0.13524 -0.308439 -0.760509 0.571394 255 255 255 255 
-0.0763421 -0.0286589 0.125007 0.177493 -0.572356 0.800566 255 255 255 255 
-0.156899 -0.166457 -0.082325 -0.0618039 -0.908261 0.413814 255 255 255 255 
0.0252282 0.0879031 0.199885 0.209833 -0.728271 -0.652374 255 255 255 255 
0.185967 -0.093918 0.0349557 0.52934 -0.828046 0.184767 255 255 255 255 
0.144224 0.0329483 0.110061 -0.669418 0.728309 0.146445 255 255 255 255 
-0.0346455 0.198216 0.0498259 -0.174115 0.928552 0.327835 255 255 255 255 
-0.284428 0.0554211 -0.0153414 -0.910921 0.389608 0.135748 255 255 255 255 
-0.204815 0.121478 0.02622 -0.544692 0.570997 0.614226 255 255 255 255 
0.173985 -0.10606 0.0150718 0.494113 -0.834801 0.242817 255 255 255 255 
-0.254914 -0.0869688 -0.0235486 -0.415346 -0.6865 0.59683 255 255 255 255 
-0.0340125 0.202337 0.0360099 -0.151909 0.925881 0.345929 255 255 255 255 
-0.021499 -0.0831287 -0.335221 0.335546 0.185825 -0.923514 255 255 255 255 
-0.0276044 0.196582 0.125582 -0.965426 0.255152 -0.0533859 255 255 255 255 
0.234095 -0.0367576 0.112204 0.852517 -0.298256 -0.429253 255 255 255 255 
-0.015351 0.0976595 0.19947 -0.754098 -0.477221 -0.451216 255 255 255 255 
-0.0342006 0.0841291 0.267769 -0.996593 -0.0824337 -0.00265707 255 255 255 255 
0.096935 0.146291 0.0716083 0.977844 -0.145088 0.150897 255 255 255 255 
-0.0588332 -0.0462589 -0.332504 0.138798 0.378834 -0.914997 255 255 255 255 
-0.0952621 -0.131052 0.00381702 0.144625 -0.808039 0.571101 255 255 255 255 
-0.173399 -0.0494547 0.109379 -0.380591 -0.12406 0.916384 255 255 255 255 
-0.135702 0.160401 0.0209523 -0.429905 0.726859 0.53559 255 255 255 255 
0.0712245 -0.127564 -0.281014 0.883494 -0.274297 -0.379735 255 255 255 255 
-0.136178 0.00387293 0.123494 -0.264864 0.254341 0.930138 255 255 255 255 
0.0864163 -0.178475 -0.0385295 0.194919 -0.839773 0.506742 255 255 255 255 
-0.130817 0.0229379 0.119886 -0.463216 0.267884 0.844789 255 255 255 255 
0.119242 0.112265 -0.0749717 0.763531 0.53281 -0.364875 255 255 255 255 
-0.14197 0.110219 0.0640906 -0.444063 0.549748 0.70752 255 255 255 255 
-0.256775 -0.0948206 0.0568571 -0.713152 -0.194236 0.673563 255 255 255 255 
-0.131228 0.0757555 0.096284 -0.468467 0.446022 0.762629 255 255 255 255 
-0.0968418 0.0561293 -0.21125 -0.161353 0.784692 -0.598518 255 255 255 255 
-0.0696961 0.0184267 -0.302154 -0.0228161 0.771461 -0.635867 255 255 255 255 
0.0102517 0.107589 0.175952 -0.131644 -0.991297 -0.000888815 255 255 255 255 
-0.191353 -0.0968207 -0.33621 -0.476011 0.199565 -0.856497 255 255 255 255 
-0.289746 -0.0838838 -0.170581 -0.948095 -0.155329 -0.277469 255 255 255 255 
-0.0979303 0.0707603 -0.194699 -0.169956 0.752005 -0.63687 255 255 255 255 
-0.298972 -0.0514571 -0.026991 -0.858485 -0.367681 0.35751 255 255 255 255 
0.212538 0.011873 0.0869284 0.579081 0.535673 -0.61459 255 255 255 255 
0.287046 0.0362085 0.197212 0.249972 0.110897 0.961881 255 255 255 255 
0.0449564 0.0366869 0.317562 0.0532782 0.260768 0.96393 255 255 255 255 
0.122559 0.00893018 0.0774804 -0.696401 0.681365 0.225316 255 255 255 255 
0.0513029 -0.168708 -0.280715 0.779996 -0.587432 -0.215709 255 255 255 255 
-0.0412453 -0.201892 -0.103658 -0.089977 -0.965815 0.243117 255 255 255 255 
-0.057422 -0.226264 -0.279974 0.0692561 -0.992483 -0.100902 255 255 255 255 
-0.247095 0.0924729 0.0153299 -0.643176 0.436146 0.629366 255 255 255 255 
-0.081185 0.0544368 -0.217789 -0.10769 0.798296 -0.592559 255 255 255 255 
0.0531524 0.0920003 0.232573 0.918412 -0.395616 -0.00257468 255 255 255 255 
0.0923019 0.187294 0.0898953 0.854113 0.517732 0.0494419 255 255 255 255 
-0.275555 -0.0401302 0.039594 -0.788422 0.0335274 0.61422 255 255 255 255 
0.211195 -0.044753 0.0361074 0.963104 -0.185143 -0.195325 255 255 255 255 
-0.145246 0.130364 -0.108526 -0.440862 0.715752 -0.541608 255 255 255 255 
-0.119602 0.0663076 0.11218 -0.50327 0.393959 0.7691 255 255 255 255 
-0.0613888 -0.196474 -0.0901269 -0.0856231 -0.958745 0.271065 255 255 255 255 
-0.00678618 0.108592 0.135883 -0.666482 -0.734078 -0.130118 255 255 255 255 
-0.138089 -0.204069 -0.146175 -0.0897738 -0.96333 0.252854 255 255 255 255 
-0.108032 -0.202215 -0.147823 -0.0617163 -0.982909 0.173441 255 255 255 255 
0.0290819 0.0477151 -0.203265 0.486361 0.622913 -0.612725 255 255 255 255 
-0.0879022 -0.225125 -0.276083 -0.056036 -0.992358 -0.109936 255 255 255 255 
0.270727 -0.0169594 0.184705 0.449235 -0.613299 0.649655 255 255 255 255 
0.0536261 0.0274378 -0.200146 0.614568 0.52011 -0.59312 255 255 255 255 
-0.0493421 0.0281377 -0.279049 0.0545177 0.856607 -0.51308 255 255 255 255 
-0.160007 0.0783972 -0.162448 -0.3677 0.721557 -0.586645 255 255 255 255 
-0.200768 -0.133458 -0.0457657 -0.367431 -0.750706 0.54903 255 255 255 255 
-0.088324 -0.0504895 0.123341 0.503653 -0.193926 0.841859 255 255 255 255 
-0.0214501 -0.213274 -0.177012 0.123771 -0.992273 0.00863738 255 255 255 255 
-0.0184929 -0.203366 -0.0926205 -0.0546991 -0.9462 0.318927 255 255 255 255 
-0.197132 0.0282785 -0.193541 -0.471949 0.706181 -0.5278 255 255 255 255 
-0.0187312 0.214859 -0.00761526 -0.0433313 0.997534 0.0552057 255 255 255 255 
-0.14914 -0.088766 0.0960585 0.0382399 -0.597405 0.801027 255 255 255 255 
-0.00913846 0.108799 0.14409 -0.447765 -0.892638 -0.0519954 255 255 255 255 
0.0696221 -0.0203592 -0.218836 0.797329 0.367466 -0.478785 255 255 255 255 
-0.108884 -0.205174 -0.156403 -0.0500892 -0.985933 0.159457 255 255 255 255 
-0.300415 -0.00247689 -0.0933371 -0.931448 0.312048 -0.187165 255 255 255 255 
0.127425 -0.167933 -0.0745581 0.571728 -0.81313 0.109297 255 255 255 255 
0.0602084 -0.0253144 0.0508486 0.0838916 -0.00467544 0.996464 255 255 255 255 
-0.0890794 0.186716 0.0331292 -0.373801 0.771907 0.51423 255 255 255 255 
-0.210448 0.0406399 0.0598191 -0.545695 0.287364 0.787172 255 255 255 255 
0.301308 0.0510304 0.160579 0.609489 0.17564 -0.773094 255 255 255 255 
-0.153006 -0.105626 0.0815068 0.1873 -0.590806 0.784772 255 255 255 255 
-0.266463 -0.043204 0.0526332 -0.729799 0.054773 0.681465 255 255 255 255 
0.205739 -0.0544746 -0.000240709 0.967075 -0.174249 -0.185478 255 255 255 255 
-0.195435 0.00433194 -0.224276 -0.499393 0.715001 -0.489265 255 255 255 255 
0.252796 -0.0289139 0.185885 0.352628 -0.63023 0.69171 255 255 255 255 
-0.19751 0.126378 -0.0559746 -0.588204 0.73378 -0.339976 255 255 255 255 
-0.161257 -0.133003 -0.34437 -0.304546 -0.0611136 -0.950535 255 255 255 255 
-0.202531 -0.193737 -0.209953 -0.505987 -0.852076 -0.133957 255 255 255 255 
0.0802903 0.154505 -0.0708334 0.543278 0.658149 -0.521238 255 255 255 255 
-0.194166 0.122092 0.0339492 -0.497704 0.567018 0.656339 255 255 255 255 
0.00563157 0.0294377 0.138521 0.87244 -0.0122946 0.488566 255 255 255 255 
-0.176483 -0.197779 -0.13855 -0.201713 -0.929879 0.307631 255 255 255 255 
0.0729178 0.209423 0.134481 0.804445 0.58384 0.109539 255 255 255 255 
-0.238132 -0.139307 -0.300254 -0.732931 -0.508041 -0.452445 255 255 255 255 
-0.0308989 0.0895629 0.146907 0.30311 0.49779 0.812607 255 255 255 255 
