ply
format ascii 1.0
comment VCGLIB generated
element vertex 633
property float x
property float y
property float z
property float nx
property float ny
property float nz
property uchar red
property uchar green
property uchar blue
property uchar alpha
element face 0
property list uchar int vertex_indices
end_header
-0.1406 0.172226 0.0979805 -0.763804 0.47221 0.440023 255 255 255 255 
0.0691912 -0.152429 -0.131506 0.736452 -0.120877 -0.665602 255 255 255 255 
0.0543075 -0.0317461 -0.231812 0.325861 -0.50379 -0.800006 255 255 255 255 
-0.15776 0.0807049 0.0990319 -0.453317 -0.666153 0.592237 255 255 255 255 
-0.206148 0.199325 -0.0086324 -0.978263 0.126392 0.164396 255 255 255 255 
-0.0267154 -0.0983906 0.208731 0.0800064 -0.178136 0.980748 255 255 255 255 
0.129869 0.164635 0.103581 0.7145 0.532735 0.453523 255 255 255 255 
-0.112425 0.302883 0.114531 -0.651384 -0.200012 0.731911 255 255 255 255 
0.184369 0.245259 -0.126995 0.892272 0.394416 -0.219743 255 255 255 255 
-0.16212 -0.0202837 -0.124816 -0.210174 -0.467263 -0.858774 255 255 255 255 
-0.0171283 0.354718 -0.135729 -0.0689504 0.990618 -0.117991 255 255 255 255 
0.0460475 -0.0571257 0.18249 0.539739 -0.114014 0.834076 255 255 255 255 
-0.204617 0.167417 0.005315 -0.966832 0.0738109 0.244517 255 255 255 255 
-0.0221301 0.0726024 0.189582 -0.627149 0.339592 0.700972 255 255 255 255 
-0.0653776 0.150679 -0.275835 -0.310977 0.0283317 -0.949995 255 255 255 255 
0.0750249 -0.152839 -0.123347 0.785512 -0.125194 -0.60605 255 255 255 255 
-0.146762 -0.116169 0.0639919 -0.945485 -0.157043 0.285299 255 255 255 255 
0.153259 -0.00588267 0.0902386 0.929796 -0.181484 0.320222 255 255 255 255 
0.0935491 -0.209942 -0.0739337 0.979736 0.0370466 -0.196837 255 255 255 255 
-0.0545572 -0.272816 -0.151737 -0.567836 0.112219 -0.815456 255 255 255 255 
-0.15998 0.307027 -0.0342921 -0.612025 0.789183 0.0511512 255 255 255 255 
-0.0742137 0.0426195 -0.263913 -0.301399 -0.234589 -0.92419 255 255 255 255 
-0.049542 0.0697616 -0.275225 -0.200829 -0.16842 -0.96504 255 255 255 255 
-0.0161529 0.195705 -0.282078 -0.0593033 0.122612 -0.990681 255 255 255 255 
-0.164834 0.102922 -0.207135 -0.829227 -0.0843644 -0.552508 255 255 255 255 
-0.182399 0.112959 0.0388353 -0.931632 0.0683317 0.356922 255 255 255 255 
-0.102758 0.309928 -0.208309 -0.456605 0.670638 -0.5846 255 255 255 255 
-0.132347 -0.13885 -0.0455452 -0.828514 -0.327918 -0.453911 255 255 255 255 
0.0579577 -0.0562535 -0.211569 0.354981 -0.644921 -0.676805 255 255 255 255 
-0.141766 -0.0495238 0.123739 -0.917421 -0.153063 0.367302 255 255 255 255 
-0.115881 -0.0600398 -0.137919 -0.69236 -0.590906 -0.414086 255 255 255 255 
-0.0669276 -0.0912719 -0.163977 -0.429586 -0.631696 -0.645303 255 255 255 255 
-0.165894 -0.0135348 0.0286649 -0.958769 -0.114657 0.260031 255 255 255 255 
-0.122023 0.0235508 0.129295 -0.646314 0.326416 0.689732 255 255 255 255 
0.0746591 -0.349101 -0.0855807 0.180049 -0.971246 -0.155769 255 255 255 255 
0.19321 0.0503276 -0.0045369 0.928117 -0.351768 -0.121892 255 255 255 255 
-0.0263673 -0.002169 0.250322 -0.757164 0.354599 0.548601 255 255 255 255 
0.15819 -0.0252124 0.0236409 0.958505 -0.241318 0.151771 255 255 255 255 
-0.185953 0.281893 -0.0624293 -0.913002 0.40619 -0.0379035 255 255 255 255 
0.0315584 -0.0284947 0.271597 0.741213 0.281049 0.609602 255 255 255 255 
0.169591 0.261657 -0.145275 0.820697 0.513713 -0.25011 255 255 255 255 
0.0897155 0.11398 -0.259425 0.443335 -0.0895306 -0.891873 255 255 255 255 
-0.100499 -0.115586 -0.115926 -0.768106 -0.350429 -0.535922 255 255 255 255 
-0.125985 0.304931 -0.19713 -0.590422 0.560618 -0.580612 255 255 255 255 
0.0534499 0.00865461 0.1804 0.756433 0.292999 0.584774 255 255 255 255 
0.107567 -0.300674 -0.0411706 0.992933 -0.0163825 0.117539 255 255 255 255 
-0.011231 -0.0839474 -0.191564 -0.0233802 -0.759742 -0.649804 255 255 255 255 
-0.0093201 -0.346671 -0.0857822 -0.0654834 -0.989385 -0.129729 255 255 255 255 
-0.204928 0.15766 -0.0828408 -0.989343 0.0436361 -0.138914 255 255 255 255 
-0.0753071 0.14774 0.180248 -0.261561 0.698681 0.665906 255 255 255 255 
0.0496247 -0.251664 0.0576969 0.445504 -0.0633621 0.893035 255 255 255 255 
-0.0738786 0.167292 -0.272378 -0.318735 0.0671762 -0.94546 255 255 255 255 
-0.112016 -0.274427 -0.0369853 -0.999377 -0.0352889 0.00075758 255 255 255 255 
-0.0548654 0.337675 -0.194521 -0.229355 0.885762 -0.403513 255 255 255 255 
-0.131868 0.147341 0.156097 -0.552498 0.657709 0.51202 255 255 255 255 
-0.170802 0.00817442 0.0191591 -0.955442 -0.135461 0.262261 255 255 255 255 
0.124129 0.271203 0.101301 0.523837 -0.489894 0.696849 255 255 255 255 
-0.0413563 0.256474 0.133438 -0.328474 -0.280685 0.901843 255 255 255 255 
-0.201685 0.202338 0.00741449 -0.892975 0.180591 0.41229 255 255 255 255 
0.172203 0.206744 -0.178312 0.854113 0.139319 -0.50108 255 255 255 255 
-0.0658534 -0.250139 0.0456589 -0.504773 -0.160577 0.848186 255 255 255 255 
0.173976 0.252958 -0.150564 0.849564 0.430854 -0.304312 255 255 255 255 
-0.058075 0.339026 0.123346 -0.200498 0.965 0.169042 255 255 255 255 
0.0571156 0.35596 -0.0554928 0.0425239 0.998863 0.0215524 255 255 255 255 
-0.00155327 0.343529 0.119514 -0.0315487 0.986117 0.163024 255 255 255 255 
-0.0696402 0.34946 -0.0877553 -0.180173 0.983621 0.00521714 255 255 255 255 
0.112778 0.150399 0.166449 0.434282 0.799772 0.414444 255 255 255 255 
0.129072 0.289716 -0.191126 0.694233 0.556424 -0.456545 255 255 255 255 
0.0797755 0.273523 -0.249374 0.406512 0.455782 -0.79184 255 255 255 255 
-0.00950097 0.354736 -0.106057 -0.051027 0.998223 -0.0307777 255 255 255 255 
-0.00632278 0.213907 0.140677 -0.0080253 0.498964 0.866585 255 255 255 255 
-0.0542017 -0.155432 0.188024 -0.357813 -0.124425 0.925467 255 255 255 255 
0.0723105 0.297423 0.148633 0.336632 -0.292459 0.895068 255 255 255 255 
0.0128034 -0.080124 -0.194305 0.113564 -0.734844 -0.668661 255 255 255 255 
-0.19318 0.183279 -0.126965 -0.959004 0.101378 -0.264641 255 255 255 255 
0.158537 -0.0262074 -0.111345 0.249643 -0.48289 -0.839342 255 255 255 255 
0.211262 0.180043 -0.0494485 0.98878 0.14568 0.033039 255 255 255 255 
0.175481 0.053695 0.041901 0.788309 -0.0138278 0.615125 255 255 255 255 
-0.205356 0.14106 -0.0869516 -0.988732 -0.0101013 -0.149354 255 255 255 255 
-0.0343129 0.142841 -0.285373 -0.152217 0.00779695 -0.988316 255 255 255 255 
0.0973199 -0.177947 -0.0481601 0.795255 -0.429974 -0.427424 255 255 255 255 
0.129262 0.193498 0.0843581 0.710935 0.398684 0.579329 255 255 255 255 
-0.0338167 -0.270899 0.061217 -0.295721 -0.109099 0.949024 255 255 255 255 
-0.0716903 -0.187034 0.175113 -0.440232 -0.183428 0.878948 255 255 255 255 
-0.00412432 -0.104422 -0.168788 0.0244257 -0.404423 -0.914246 255 255 255 255 
0.166202 0.0678013 0.0575927 0.824202 0.00986219 0.56621 255 255 255 255 
-0.0185187 -0.0457444 0.245511 -0.13544 -0.938335 0.318092 255 255 255 255 
0.0395746 0.346397 -0.190012 0.147723 0.929572 -0.337749 255 255 255 255 
0.138327 -0.0286254 -0.154793 0.74145 -0.564443 -0.362845 255 255 255 255 
-0.0891022 -0.0655502 -0.179998 -0.496683 -0.682443 -0.536262 255 255 255 255 
0.0873772 -0.276328 0.0187806 0.868019 -0.0371231 0.495142 255 255 255 255 
-0.0235277 0.032803 0.218812 -0.745449 0.400397 0.532905 255 255 255 255 
0.0436704 -0.0416584 0.236063 0.84469 -0.50688 0.171963 255 255 255 255 
-0.0407807 0.33532 -0.20694 -0.19734 0.871765 -0.448423 255 255 255 255 
-0.207878 0.104528 -0.0160793 -0.98634 -0.154404 0.0573771 255 255 255 255 
0.0911918 0.318836 -0.205242 0.495639 0.688847 -0.528992 255 255 255 255 
-0.0923935 0.279175 0.118844 -0.536561 -0.295137 0.790567 255 255 255 255 
-0.145042 0.0977471 0.127525 -0.495137 -0.570932 0.654886 255 255 255 255 
-0.187713 0.278975 -0.0453762 -0.906043 0.422537 0.0234426 255 255 255 255 
-0.130108 0.278205 0.0818298 -0.700354 -0.271611 0.6601 255 255 255 255 
-0.0813303 -0.212791 -0.121218 -0.736941 0.0198959 -0.675664 255 255 255 255 
-0.105934 -0.0195652 0.160627 -0.624999 0.066198 0.777814 255 255 255 255 
-0.167301 0.0361626 0.0511139 -0.946517 -0.122411 0.298531 255 255 255 255 
-0.14023 -0.118502 0.0843304 -0.942039 -0.17299 0.287467 255 255 255 255 
0.126398 0.179876 -0.240019 0.679249 0.0411331 -0.732755 255 255 255 255 
0.0791763 -0.297125 -0.143244 0.767819 0.0960829 -0.633421 255 255 255 255 
0.119421 0.295396 -0.19942 0.644661 0.568302 -0.511317 255 255 255 255 
0.00298332 0.231038 0.130473 0.0359563 0.49831 0.866253 255 255 255 255 
-0.172372 -0.0577381 -0.0116557 -0.964232 -0.0917529 0.248674 255 255 255 255 
0.18087 0.0415109 -0.134422 0.860893 -0.270477 -0.430936 255 255 255 255 
-0.168084 0.0582043 -0.188234 -0.86643 -0.206153 -0.454753 255 255 255 255 
0.0611009 0.139166 -0.272568 0.304185 -0.0470091 -0.951452 255 255 255 255 
0.00722571 -0.29342 0.0667108 0.037083 -0.0732622 0.996623 255 255 255 255 
0.0788744 0.353962 -0.110609 0.231212 0.961502 -0.148512 255 255 255 255 
0.14436 -0.0867123 0.0418192 0.953809 -0.204908 0.219682 255 255 255 255 
0.0509771 -0.344535 -0.121268 0.105074 -0.962634 -0.249589 255 255 255 255 
0.178942 0.00702596 -0.0911803 0.975098 -0.160215 0.153345 255 255 255 255 
0.179274 0.239316 -0.024633 0.715692 0.547289 0.433888 255 255 255 255 
-0.0813511 0.3368 0.0882335 -0.285791 0.949328 0.130769 255 255 255 255 
0.203504 0.155341 -0.107073 0.972089 0.0289443 -0.232822 255 255 255 255 
0.146444 -0.0187375 -0.149549 0.760015 -0.520325 -0.389408 255 255 255 255 
-0.150222 -0.17864 0.000763636 -0.663228 -0.70104 -0.262054 255 255 255 255 
0.207964 0.185278 -0.0839076 0.983045 0.132227 -0.127035 255 255 255 255 
-0.00188071 0.34774 0.0476473 -0.0273114 0.996191 0.0828147 255 255 255 255 
0.0261103 -0.223607 0.0929345 0.0670617 -0.997629 -0.0154343 255 255 255 255 
-0.0991714 0.248822 -0.250857 -0.485051 0.354301 -0.799497 255 255 255 255 
-0.0333582 -0.338792 -0.13053 -0.131642 -0.962551 -0.236994 255 255 255 255 
-0.0530444 0.110197 -0.279138 -0.26157 -0.0776361 -0.962057 255 255 255 255 
0.139148 0.293642 0.0818578 0.911245 0.27453 0.307029 255 255 255 255 
0.095062 -0.0828394 -0.120072 0.777434 -0.458003 -0.43108 255 255 255 255 
0.154942 0.278687 -0.100349 0.798478 0.600294 -0.0456047 255 255 255 255 
0.0983786 -0.016359 -0.218735 0.512363 -0.465856 -0.721431 255 255 255 255 
0.0540308 -0.339041 -0.13872 0.141663 -0.937688 -0.317289 255 255 255 255 
-0.167589 0.0273527 -0.173386 -0.861737 -0.3053 -0.405217 255 255 255 255 
0.146897 -0.0698491 -0.0588518 0.557241 -0.46035 -0.691058 255 255 255 255 
-0.0283197 -0.0251538 -0.25303 -0.0668596 -0.475074 -0.877402 255 255 255 255 
-0.048323 0.244835 0.125994 -0.382375 -0.212166 0.899319 255 255 255 255 
-0.0547322 0.00756921 0.187722 -0.66495 0.252695 0.702842 255 255 255 255 
-0.11563 -0.205113 0.00353078 -0.564467 -0.803409 -0.189502 255 255 255 255 
-0.190338 -0.0245153 -0.0837547 -0.979462 -0.0740967 0.18752 255 255 255 255 
-0.0520915 -0.0649011 -0.211288 -0.263161 -0.723656 -0.638019 255 255 255 255 
0.16562 0.223592 0.0017644 0.662867 0.506853 0.551097 255 255 255 255 
-0.0314444 0.351669 -0.0703404 -0.091831 0.995486 0.0239745 255 255 255 255 
-0.0136225 -0.111618 -0.166192 -0.029328 -0.344043 -0.938496 255 255 255 255 
-0.0704151 -0.345467 -0.0380304 -0.139504 -0.986561 -0.0850635 255 255 255 255 
-0.0236959 -0.0898281 -0.181562 -0.100708 -0.737814 -0.667449 255 255 255 255 
-0.0185549 -0.223513 0.141616 -0.0366862 -0.998643 0.0369651 255 255 255 255 
-0.0461805 -0.34242 -0.0973274 -0.119754 -0.979949 -0.159242 255 255 255 255 
-0.110841 0.0997852 0.154157 -0.418956 -0.490455 0.764153 255 255 255 255 
0.0778254 -0.0259918 -0.224693 0.427359 -0.4966 -0.755482 255 255 255 255 
-0.167929 -0.0367842 0.0117953 -0.961646 -0.102429 0.254449 255 255 255 255 
-0.180668 0.0946807 -0.173008 -0.915872 -0.106355 -0.387126 255 255 255 255 
-0.0998026 0.20284 0.118326 -0.524639 0.516421 0.676804 255 255 255 255 
-0.209736 0.11678 -0.0461553 -0.992141 -0.122254 -0.0266387 255 255 255 255 
0.156035 0.0156034 -0.166076 0.807008 -0.364346 -0.464748 255 255 255 255 
-0.158244 0.03829 -0.198818 -0.829815 -0.273851 -0.486222 255 255 255 255 
-0.198218 0.195777 -0.0972151 -0.975536 0.112596 -0.188818 255 255 255 255 
-0.154888 0.00897758 0.0938769 -0.950911 -0.106216 0.290667 255 255 255 255 
0.141743 -0.105392 -0.0334786 0.694627 -0.355409 -0.625442 255 255 255 255 
-0.099744 -0.211631 0.111628 -0.262693 -0.964607 0.0229142 255 255 255 255 
0.0322477 0.344501 0.0865444 0.0632438 0.993724 0.0922614 255 255 255 255 
-0.113934 0.330685 -0.0233587 -0.390759 0.917503 0.0741332 255 255 255 255 
0.0989864 -0.238682 -0.0239871 0.986633 0.0369144 0.158724 255 255 255 255 
0.0271827 0.216462 -0.278434 0.124555 0.149038 -0.980955 255 255 255 255 
-0.185135 0.14284 -0.16607 -0.930184 0.0129291 -0.366867 255 255 255 255 
-0.146259 0.155754 0.114535 -0.765278 0.506346 0.397445 255 255 255 255 
-0.0706196 0.245582 0.115125 -0.475739 -0.259166 0.840539 255 255 255 255 
-0.0767198 -0.177305 0.173757 -0.455111 -0.149025 0.877875 255 255 255 255 
-0.0430411 0.350972 -0.0694449 -0.115932 0.992845 0.0286122 255 255 255 255 
0.166025 0.0131657 0.0509072 0.943701 -0.188673 0.271717 255 255 255 255 
0.0068792 0.192752 0.153631 0.0470565 0.545015 0.837105 255 255 255 255 
0.15641 0.137047 0.0828734 0.858365 0.411004 0.30706 255 255 255 255 
-0.0369077 0.189362 0.150988 -0.163037 0.524796 0.835468 255 255 255 255 
-0.189126 0.198241 -0.135217 -0.947691 0.127405 -0.29266 255 255 255 255 
0.083397 -0.134085 -0.114785 0.806866 -0.216827 -0.549502 255 255 255 255 
-0.145393 0.313543 0.00465636 -0.496274 0.866188 0.0585785 255 255 255 255 
-0.158709 0.0865326 0.105128 -0.46588 -0.646296 0.604365 255 255 255 255 
-0.0796108 -0.217073 0.127707 -0.178396 -0.983463 0.0312237 255 255 255 255 
0.106273 -0.284956 -0.0393743 0.994874 0.0136057 0.100201 255 255 255 255 
0.129951 0.0525977 0.118978 0.624696 -0.319285 0.712609 255 255 255 255 
0.0434204 0.15801 -0.277857 0.22239 -0.00881726 -0.974918 255 255 255 255 
0.0195875 0.189669 0.154195 0.111324 0.567907 0.81553 255 255 255 255 
0.0791377 -0.337014 0.0195092 0.791937 -0.177671 0.584182 255 255 255 255 
-0.0806738 -0.345237 -0.0245096 -0.14455 -0.987126 -0.0684667 255 255 255 255 
-0.177369 0.0863916 -0.179196 -0.900065 -0.129866 -0.415954 255 255 255 255 
0.0884583 -0.205183 -0.095914 0.942195 0.0365973 -0.333061 255 255 255 255 
0.110689 0.182162 0.111128 0.607117 0.534177 0.588273 255 255 255 255 
-0.196485 0.03785 -0.113302 -0.990044 -0.140736 -0.00237363 255 255 255 255 
-0.0512528 -0.34352 -0.0820619 -0.121117 -0.983845 -0.131835 255 255 255 255 
-0.0370972 0.230208 -0.274844 -0.122402 0.230908 -0.965246 255 255 255 255 
-0.0651421 -0.0437055 -0.229223 -0.347891 -0.60873 -0.713035 255 255 255 255 
0.0198055 0.347571 -0.189179 0.042702 0.943329 -0.3291 255 255 255 255 
-0.193222 0.198889 0.0177927 -0.742935 0.201001 0.638471 255 255 255 255 
-0.0555885 -0.347396 -0.0368679 -0.121413 -0.989214 -0.0819406 255 255 255 255 
0.204352 0.0998157 -0.0490384 0.982876 -0.174172 -0.0601556 255 255 255 255 
0.00605533 -0.187658 0.188689 0.17813 -0.162425 0.970509 255 255 255 255 
0.00546596 0.00597355 0.272323 0.293359 0.415758 0.860864 255 255 255 255 
-0.144902 0.0801637 0.10939 -0.486018 -0.611532 0.624352 255 255 255 255 
-0.0230502 -0.219149 -0.154335 -0.30529 0.0467857 -0.95111 255 255 255 255 
0.161487 0.046682 0.0706048 0.879551 -0.0383921 0.474252 255 255 255 255 
0.14127 0.239327 0.0548588 0.943602 -0.173706 0.281852 255 255 255 255 
-0.0435966 -0.352753 -0.00394729 -0.127382 -0.991841 0.00498694 255 255 255 255 
-0.106555 -0.226965 -0.0043224 -0.996163 -0.0687064 0.0542099 255 255 255 255 
0.155535 -0.0727983 -0.0180651 0.966297 -0.221392 0.131361 255 255 255 255 
0.0676276 0.187273 0.135123 0.363925 0.628505 0.687416 255 255 255 255 
-0.165393 0.0742995 0.0852708 -0.436059 -0.689795 0.577958 255 255 255 255 
0.0322802 -0.138796 -0.15615 0.212688 -0.203884 -0.955612 255 255 255 255 
-0.204741 0.221275 -0.0369445 -0.986309 0.162597 0.0275174 255 255 255 255 
0.109521 0.313489 -0.190522 0.596542 0.659921 -0.456774 255 255 255 255 
0.107281 -0.168264 -0.0409821 0.754115 -0.461982 -0.46678 255 255 255 255 
0.04557 -0.278668 -0.165423 0.46451 0.0539946 -0.88392 255 255 255 255 
0.0964134 -0.215105 -0.0219824 0.987869 0.010923 0.154906 255 255 255 255 
0.210776 0.159497 -0.0205433 0.98058 0.106479 0.164695 255 255 255 255 
-0.122824 -0.190186 0.0859994 -0.899113 -0.330603 0.286877 255 255 255 255 
0.118843 -0.0204276 -0.199496 0.636176 -0.496395 -0.590654 255 255 255 255 
-0.0869463 -0.300648 -0.129793 -0.777308 0.0373757 -0.62801 255 255 255 255 
0.0138668 0.353049 -0.0468038 -0.0357519 0.998953 0.0285529 255 255 255 255 
0.0523958 0.233327 -0.272495 0.214428 0.216168 -0.952519 255 255 255 255 
-0.054255 0.347164 -0.0284419 -0.164734 0.984857 0.0540358 255 255 255 255 
0.0613473 -0.28436 0.0484441 0.574076 -0.0725568 0.815581 255 255 255 255 
0.0962641 0.335124 0.0674371 0.274593 0.959384 0.0646565 255 255 255 255 
-0.190736 0.0139038 -0.0693602 -0.983151 -0.0786802 0.164995 255 255 255 255 
-0.0280136 0.345257 0.0960678 -0.0848546 0.9894 0.117848 255 255 255 255 
0.152615 0.226192 -0.200648 0.780786 0.206207 -0.58979 255 255 255 255 
-0.167174 -0.0971651 -0.0211708 -0.780299 -0.369361 -0.504685 255 255 255 255 
0.16552 0.0837624 0.0587763 0.825095 0.0371936 0.563768 255 255 255 255 
0.130499 -0.171863 0.0210097 0.929171 -0.302238 0.212822 255 255 255 255 
0.157096 0.127118 -0.205178 0.79164 -0.0327516 -0.610109 255 255 255 255 
-0.0157028 -0.204922 0.189079 0.0310409 -0.236399 0.97116 255 255 255 255 
-0.0954824 0.337557 -0.0241585 -0.321012 0.94382 0.0784602 255 255 255 255 
0.139188 0.277068 -0.190453 0.726297 0.501329 -0.470278 255 255 255 255 
-0.135512 -0.174586 0.0625559 -0.905496 -0.311033 0.288678 255 255 255 255 
-0.097603 0.272532 -0.239281 -0.487955 0.434266 -0.757174 255 255 255 255 
0.0920882 0.121928 -0.259296 0.452123 -0.079089 -0.888442 255 255 255 255 
-0.0106455 -0.0504641 0.242375 -0.0630754 -0.966787 0.247677 255 255 255 255 
-0.145041 0.222679 -0.217402 -0.761487 0.219055 -0.610044 255 255 255 255 
-0.095976 0.0239963 0.153556 -0.600873 0.153494 0.784468 255 255 255 255 
-0.0208693 0.122077 -0.285932 -0.066244 -0.0559749 -0.996232 255 255 255 255 
-0.0484654 -0.00676618 0.206743 -0.772236 0.338052 0.537933 255 255 255 255 
0.211175 0.118728 -0.0113216 0.993529 -0.0477318 0.103061 255 255 255 255 
0.14969 -0.0668554 0.0325141 0.961724 -0.201311 0.185904 255 255 255 255 
0.00103072 -0.0447082 -0.239729 0.0910997 -0.575 -0.813066 255 255 255 255 
-0.192422 0.0655527 -0.0217351 -0.963869 -0.259971 0.0580636 255 255 255 255 
-0.148524 0.169398 0.0809564 -0.824762 0.393526 0.406084 255 255 255 255 
-0.199702 0.132793 -0.112667 -0.976472 -0.029976 -0.21355 255 255 255 255 
-0.127596 0.129757 -0.24778 -0.602013 0.0106467 -0.798415 255 255 255 255 
0.154264 -0.0858093 -0.0269676 0.965305 -0.225875 0.13102 255 255 255 255 
-0.0937442 -0.084858 -0.143231 -0.648043 -0.548212 -0.528681 255 255 255 255 
0.0808183 -0.267239 -0.134784 0.812403 0.109218 -0.572776 255 255 255 255 
0.0530136 0.0154087 0.177233 0.747526 0.311751 0.586529 255 255 255 255 
0.0725697 0.34197 0.0440789 0.190737 0.977824 0.0864804 255 255 255 255 
0.127669 0.327449 -0.0846624 0.840475 0.535767 -0.0809639 255 255 255 255 
-0.173559 0.100028 0.0729171 -0.962223 0.165443 0.216229 255 255 255 255 
-0.106936 -0.119308 0.153412 -0.630619 0.0157049 0.775934 255 255 255 255 
0.113965 -0.0440859 0.131064 0.529314 -0.288584 0.797838 255 255 255 255 
0.0559747 0.0101169 -0.252517 0.313276 -0.351407 -0.882254 255 255 255 255 
-0.0872789 -0.214602 0.0891103 -0.275576 -0.961066 0.0202643 255 255 255 255 
0.0121456 0.115437 -0.283835 0.0994591 -0.0666141 -0.992809 255 255 255 255 
-0.0366306 -0.221902 0.103189 -0.0873426 -0.995801 0.0274051 255 255 255 255 
-0.151719 -0.0680248 0.0604908 -0.961675 -0.12829 0.24233 255 255 255 255 
0.0779618 -0.193421 -0.119337 0.844588 0.020738 -0.535015 255 255 255 255 
0.128284 -0.161987 -0.022722 0.704051 -0.51318 -0.490875 255 255 255 255 
-0.0341187 -0.336129 0.0586785 -0.311463 -0.162421 0.936275 255 255 255 255 
-0.163184 -0.138434 0.00691986 -0.967709 -0.197298 0.156882 255 255 255 255 
0.0253547 -0.223698 0.159876 0.103213 -0.985061 0.137848 255 255 255 255 
0.142759 0.307645 0.0212491 0.887221 0.452934 0.087693 255 255 255 255 
-0.108002 -0.237185 -0.0296097 -0.998991 -0.0422403 -0.0152401 255 255 255 255 
-0.0557719 -0.0223402 0.192195 -0.654626 0.26447 0.708181 255 255 255 255 
-0.16453 0.206949 -0.193727 -0.845622 0.168671 -0.506432 255 255 255 255 
0.174968 0.0739847 -0.168121 0.88755 -0.178146 -0.424875 255 255 255 255 
-0.119812 -0.0643672 0.14174 -0.739684 -0.0665775 0.669653 255 255 255 255 
0.189574 0.20325 -0.142515 0.929626 0.148622 -0.337205 255 255 255 255 
-0.186444 0.0355859 -0.0415557 -0.979473 -0.144703 0.140337 255 255 255 255 
0.141875 -0.117811 0.030035 0.952002 -0.216085 0.216795 255 255 255 255 
-0.0377723 -0.183255 0.190033 -0.222251 -0.180929 0.958055 255 255 255 255 
-0.0246172 0.215773 0.138786 -0.0956089 0.470029 0.877458 255 255 255 255 
-0.146491 0.272952 -0.193514 -0.759506 0.332904 -0.558861 255 255 255 255 
0.0902823 -0.205901 -0.0885887 0.957272 0.0341514 -0.287167 255 255 255 255 
0.122562 0.285072 0.112383 0.495579 -0.475847 0.726617 255 255 255 255 
0.0711306 0.00916815 -0.246098 0.381846 -0.354028 -0.853732 255 255 255 255 
0.0580219 -0.221996 0.127296 0.119093 -0.992866 0.00582079 255 255 255 255 
0.104471 -0.329775 -0.0340577 0.969729 -0.124766 0.209903 255 255 255 255 
0.0963107 0.0417418 0.136137 0.498034 0.253477 0.829284 255 255 255 255 
0.114537 -0.190243 0.0104401 0.610118 -0.779411 -0.142389 255 255 255 255 
-0.133532 -0.0385094 -0.157587 -0.698163 -0.609789 -0.375133 255 255 255 255 
0.0561815 0.078801 0.158901 0.286512 -0.0488717 0.956829 255 255 255 255 
0.11071 0.345037 -0.0180995 0.248018 0.964336 0.0924318 255 255 255 255 
0.0941426 -0.266019 -0.10627 0.93013 0.108421 -0.35086 255 255 255 255 
0.113299 0.158362 0.144934 0.491923 0.757232 0.429664 255 255 255 255 
0.165211 0.194447 0.0272233 0.726553 0.394863 0.56232 255 255 255 255 
-0.141513 -0.0773517 0.106374 -0.941551 -0.156087 0.298528 255 255 255 255 
-0.0801692 0.162635 -0.270112 -0.348694 0.0553404 -0.935602 255 255 255 255 
0.108103 0.171501 0.123726 0.557759 0.618217 0.553816 255 255 255 255 
-0.193232 0.0969356 -0.130257 -0.969362 -0.1044 -0.222346 255 255 255 255 
0.203446 0.0763871 -0.00264471 0.953127 -0.282642 -0.107993 255 255 255 255 
-0.0819219 -0.309917 0.0362649 -0.696142 -0.187983 0.692856 255 255 255 255 
-0.19339 0.0470334 -0.0791013 -0.987718 -0.131378 0.0845753 255 255 255 255 
0.0750257 -0.221795 -0.130498 0.812365 0.0765386 -0.578105 255 255 255 255 
-0.059653 0.337024 0.132832 -0.201621 0.962908 0.179325 255 255 255 255 
0.158062 0.0198902 0.0828572 0.923204 -0.123309 0.363989 255 255 255 255 
-0.0686672 -0.0582456 -0.210485 -0.365335 -0.682941 -0.632551 255 255 255 255 
0.0924241 0.294368 0.137971 0.413627 -0.371534 0.831189 255 255 255 255 
-0.0971502 0.176078 0.141832 -0.417583 0.624257 0.660248 255 255 255 255 
0.0277203 0.355128 -0.0763226 -0.00853994 0.999963 0.000830208 255 255 255 255 
-0.0626916 -0.278975 0.048637 -0.486175 -0.12132 0.865399 255 255 255 255 
0.0885438 0.224754 0.102658 0.541956 0.460766 0.702836 255 255 255 255 
-0.0806589 0.346256 -0.0647742 -0.230335 0.971944 0.0476453 255 255 255 255 
0.198118 0.0749525 -0.0282032 0.960408 -0.262513 -0.0932964 255 255 255 255 
-0.0729079 0.315758 -0.221889 -0.341683 0.716111 -0.608635 255 255 255 255 
-0.0266981 0.0241937 -0.269501 -0.0772339 -0.27444 -0.958497 255 255 255 255 
-0.0540526 -0.0645872 0.192259 -0.520548 0.328072 0.788288 255 255 255 255 
0.00159159 -0.35751 0.0243418 -0.0697163 -0.995676 0.0613956 255 255 255 255 
-0.143698 -0.118395 0.0726692 -0.943491 -0.166392 0.286599 255 255 255 255 
-0.186672 0.196104 -0.14512 -0.938128 0.127403 -0.322002 255 255 255 255 
-0.0163248 -0.0243013 0.275572 -0.792052 0.176937 0.584248 255 255 255 255 
-0.0262455 -0.266373 0.0637129 -0.242907 -0.110253 0.963764 255 255 255 255 
-0.0906142 0.345095 -0.119424 -0.237026 0.967201 -0.0913244 255 255 255 255 
0.10321 0.101078 -0.250737 0.503657 -0.107635 -0.857173 255 255 255 255 
-0.027414 0.293919 0.154872 -0.173016 -0.323385 0.930316 255 255 255 255 
-0.091088 -0.14101 0.166483 -0.569901 -0.0524067 0.82004 255 255 255 255 
0.102196 0.338707 0.0228947 0.300024 0.94943 0.0925697 255 255 255 255 
0.201202 0.106065 -0.0938391 0.976324 -0.127541 -0.174713 255 255 255 255 
0.0727557 -0.160301 0.156475 0.655522 -0.0604172 0.752756 255 255 255 255 
0.094706 -0.315221 -0.122148 0.875399 0.108196 -0.471136 255 255 255 255 
-0.186384 0.02099 -0.045108 -0.979728 -0.104261 0.171064 255 255 255 255 
-0.192521 0.242012 -0.0927977 -0.964887 0.194498 -0.176534 255 255 255 255 
0.0775314 -0.213013 0.0767806 0.310844 -0.949576 -0.0410086 255 255 255 255 
0.140297 0.22149 0.0369822 0.949057 -0.175513 0.2617 255 255 255 255 
0.160982 0.27319 -0.0993656 0.792421 0.608846 -0.0370979 255 255 255 255 
0.0551913 -0.152317 -0.145604 0.598304 -0.119903 -0.792247 255 255 255 255 
-0.0274946 0.00950828 -0.266007 -0.0827613 -0.325107 -0.942049 255 255 255 255 
-0.0652497 -0.111985 -0.152759 -0.479092 -0.440551 -0.759201 255 255 255 255 
0.101334 -0.248995 -0.0575411 0.995474 0.072893 -0.0609825 255 255 255 255 
-0.116614 0.328005 0.00565449 -0.377435 0.92375 0.0650253 255 255 255 255 
-0.0131914 -0.0660914 -0.219969 -0.0112849 -0.721988 -0.691814 255 255 255 255 
0.0865633 0.341161 0.031514 0.234456 0.967455 0.0951863 255 255 255 255 
0.0962652 0.332015 0.115784 0.242741 0.967346 0.0729353 255 255 255 255 
-0.072258 0.341319 0.00709457 -0.218558 0.974097 0.0580286 255 255 255 255 
-0.0704006 -0.310041 0.0456172 -0.565181 -0.176057 0.805962 255 255 255 255 
-0.112045 -0.284144 -0.0574992 -0.99341 -0.0414188 -0.106868 255 255 255 255 
0.106317 -0.281426 -0.0526221 0.999066 0.0431153 0.00291198 255 255 255 255 
0.0515569 0.349064 0.0140612 0.0888825 0.98929 0.115779 255 255 255 255 
0.139666 0.0137449 0.119193 0.501265 0.461935 0.731675 255 255 255 255 
0.0970674 -0.205982 -0.0285542 0.996723 0.00778569 0.0805124 255 255 255 255 
0.192221 0.0749904 -0.0914672 0.983572 -0.156283 -0.0903444 255 255 255 255 
0.0651201 -0.340428 -0.12987 0.174442 -0.935911 -0.306008 255 255 255 255 
-0.201804 0.16531 0.0120637 -0.90442 0.0965074 0.415584 255 255 255 255 
-0.147755 0.121087 -0.230176 -0.737091 -0.0201946 -0.675491 255 255 255 255 
0.121956 -0.018739 0.139511 0.587059 -0.280122 0.759535 255 255 255 255 
0.0736112 -0.106358 0.149788 0.652856 -0.00114659 0.757481 255 255 255 255 
0.0148416 0.00642112 -0.261333 0.139141 -0.354923 -0.924483 255 255 255 255 
-0.179401 0.0790153 -0.17215 -0.909777 -0.143814 -0.389388 255 255 255 255 
0.0547132 0.356131 -0.107464 0.103609 0.989669 -0.0991024 255 255 255 255 
-0.0962584 -0.331625 0.00794107 -0.875343 -0.222782 0.429118 255 255 255 255 
-0.0204275 -0.164029 -0.15393 -0.125597 -0.139967 -0.982158 255 255 255 255 
-0.204167 0.0956706 -0.00593517 -0.978235 -0.193219 0.0756504 255 255 255 255 
-0.0791839 0.340421 -0.167693 -0.266108 0.9177 -0.294979 255 255 255 255 
-0.0594802 0.11453 0.178893 -0.253191 -0.345215 0.903726 255 255 255 255 
-0.141803 -0.184826 -0.00203163 -0.632281 -0.728349 -0.264059 255 255 255 255 
0.0185342 0.351933 -0.00242442 -0.00690094 0.997543 0.0697204 255 255 255 255 
0.15358 0.175108 0.0585579 0.804844 0.325937 0.495975 255 255 255 255 
0.145933 -0.0394547 0.0890761 0.926615 -0.22211 0.303399 255 255 255 255 
0.00536286 0.301698 0.161144 -0.00999234 -0.341821 0.939712 255 255 255 255 
-0.196183 0.0600971 -0.105914 -0.987706 -0.146787 -0.0537676 255 255 255 255 
-0.196544 0.0777194 -0.0835052 -0.982053 -0.181922 -0.0497665 255 255 255 255 
-0.0544948 -0.289326 -0.155234 -0.581573 0.100177 -0.807303 255 255 255 255 
0.182328 0.100468 0.0349704 0.790313 0.0433232 0.611169 255 255 255 255 
-0.0246052 -0.110077 0.205772 0.00894771 -0.183818 0.98292 255 255 255 255 
0.161704 -0.00257732 0.0492985 0.950424 -0.220177 0.219583 255 255 255 255 
-0.190689 0.261242 -0.0114071 -0.923226 0.306141 0.232229 255 255 255 255 
0.201932 0.206396 -0.100073 0.963526 0.196729 -0.181427 255 255 255 255 
0.113774 0.0270786 0.129166 0.511458 0.390802 0.765301 255 255 255 255 
0.117791 -0.166017 0.0721802 0.910463 -0.300512 0.284165 255 255 255 255 
0.0300913 -0.0626338 -0.217292 0.204797 -0.683645 -0.700491 255 255 255 255 
-0.155597 0.314427 -0.0659467 -0.597919 0.801021 0.0293133 255 255 255 255 
0.0378225 -0.263051 0.0620321 0.347245 -0.0714554 0.935048 255 255 255 255 
-0.159883 -0.116115 0.0267931 -0.958516 -0.141987 0.247158 255 255 255 255 
0.0933497 -0.205313 0.112363 0.816684 -0.484779 0.313075 255 255 255 255 
0.0528995 -0.0913431 0.173522 0.581881 -0.0652573 0.810652 255 255 255 255 
0.123455 0.326386 -0.123403 0.718038 0.669695 -0.189552 255 255 255 255 
-0.0547691 0.343155 -0.178668 -0.205835 0.924434 -0.32102 255 255 255 255 
0.0669991 0.355428 -0.109831 0.163457 0.97838 -0.126706 255 255 255 255 
0.101559 0.101538 0.161111 0.347739 -0.531188 0.772604 255 255 255 255 
-0.11073 -0.314682 -0.0602981 -0.976786 -0.188944 -0.100939 255 255 255 255 
0.00412116 -0.224659 0.157606 0.0264 -0.996271 0.0821354 255 255 255 255 
0.0010189 -0.348887 -0.0708513 -0.0512647 -0.992209 -0.113548 255 255 255 255 
-0.0396884 -0.237348 -0.151061 -0.431938 0.0946724 -0.896921 255 255 255 255 
-0.0373037 -0.0498399 -0.235777 -0.16738 -0.632315 -0.756414 255 255 255 255 
-0.103475 -0.0983969 -0.119389 -0.751358 -0.412995 -0.51468 255 255 255 255 
-0.108384 -0.315944 -0.0146878 -0.960756 -0.185437 0.206302 255 255 255 255 
-0.105224 -0.0314562 0.159136 -0.644695 0.0243292 0.764053 255 255 255 255 
0.113721 -0.172431 0.0809742 0.900115 -0.322843 0.292515 255 255 255 255 
0.0861509 -0.31709 -0.137359 0.81964 0.0989782 -0.564264 255 255 255 255 
-0.112968 -0.294309 -0.0328509 -0.994108 -0.100124 0.0415238 255 255 255 255 
-0.0423725 0.339079 -0.197499 -0.188741 0.8985 -0.396325 255 255 255 255 
0.112674 -0.181208 0.073525 0.896687 -0.346399 0.275609 255 255 255 255 
-0.174667 0.208668 -0.172692 -0.891432 0.158705 -0.424455 255 255 255 255 
0.00778973 -0.0629523 0.203185 -0.105856 -0.951257 0.289664 255 255 255 255 
0.0300312 0.297725 0.158922 0.123488 -0.33211 0.935122 255 255 255 255 
0.00149936 -0.129637 0.196988 0.171419 -0.271211 0.947133 255 255 255 255 
-0.00578793 0.351467 -0.0165207 -0.0581956 0.997414 0.0421717 255 255 255 255 
0.138715 -0.0380062 0.112607 0.867902 -0.23608 0.43705 255 255 255 255 
0.10147 -0.181363 0.118487 0.850438 -0.323436 0.414903 255 255 255 255 
0.210298 0.187258 -0.0664267 0.986472 0.158577 -0.0415405 255 255 255 255 
0.157409 0.228211 0.00485953 0.675069 0.496314 0.545851 255 255 255 255 
0.00280384 0.345965 0.0693958 -0.00663023 0.995692 0.0924856 255 255 255 255 
0.137595 0.0761684 0.120576 0.550156 -0.49777 0.670487 255 255 255 255 
0.0307536 -0.22454 0.14248 0.0790489 -0.994945 0.0619396 255 255 255 255 
-0.149479 0.319824 -0.0759861 -0.552274 0.833177 0.028451 255 255 255 255 
-0.137319 -0.116706 0.0965816 -0.939195 -0.174951 0.295474 255 255 255 255 
-0.127128 0.0402988 0.109236 -0.652006 0.442674 0.615571 255 255 255 255 
0.182669 0.253738 -0.103475 0.845913 0.526812 -0.0830637 255 255 255 255 
-0.0081365 -0.06283 0.200259 -0.155621 -0.928386 0.337465 255 255 255 255 
-0.200018 0.182805 0.0140602 -0.870512 0.13755 0.472535 255 255 255 255 
-0.0845869 -0.286146 -0.130312 -0.758264 0.061708 -0.64902 255 255 255 255 
-0.0315908 0.189132 -0.280961 -0.127723 0.118159 -0.984746 255 255 255 255 
0.18729 0.0528893 -0.0355799 0.953005 -0.292017 -0.0806714 255 255 255 255 
-0.141437 -0.0229907 -0.177304 -0.730754 -0.535181 -0.423769 255 255 255 255 
0.100907 -0.272997 -0.0151339 0.965316 -0.000722646 0.261082 255 255 255 255 
0.0441036 -0.222291 0.0874898 0.144933 -0.989012 -0.0291372 255 255 255 255 
-0.0615439 -0.243146 0.0492977 -0.478601 -0.166127 0.862173 255 255 255 255 
-0.0296454 0.353806 -0.131919 -0.096507 0.989894 -0.103909 255 255 255 255 
0.0999592 0.316717 -0.198329 0.545857 0.674423 -0.497186 255 255 255 255 
0.0956988 -0.138262 0.133792 0.721596 -0.0512071 0.690418 255 255 255 255 
0.0689045 0.283546 0.144881 0.318377 -0.359515 0.877146 255 255 255 255 
0.207241 0.201487 -0.0353659 0.957309 0.253723 0.138509 255 255 255 255 
-0.0182912 0.136823 -0.286763 -0.05084 -0.016624 -0.998568 255 255 255 255 
0.0970705 -0.194336 -0.0290862 0.997769 -0.00910721 0.0661321 255 255 255 255 
-0.0664412 -0.218359 0.156885 -0.128481 -0.990189 0.0549379 255 255 255 255 
0.0746514 0.342687 -0.169994 0.299486 0.903853 -0.305545 255 255 255 255 
-0.14193 -0.131381 0.0725402 -0.937364 -0.188614 0.292872 255 255 255 255 
0.159233 0.201947 -0.197087 0.805181 0.124722 -0.579765 255 255 255 255 
-0.0232242 0.150111 -0.286357 -0.0784976 0.0200893 -0.996712 255 255 255 255 
-1.74863e-005 0.0118382 -0.265314 0.0654236 -0.326159 -0.943048 255 255 255 255 
-0.0682829 0.252639 0.119237 -0.460055 -0.275891 0.843939 255 255 255 255 
-0.16874 -0.0619851 -0.0746978 -0.38833 -0.677337 -0.624832 255 255 255 255 
-0.0520739 -0.338721 -0.118021 -0.148972 -0.964295 -0.218958 255 255 255 255 
-0.0997307 0.0760151 0.146137 -0.514295 -0.284415 0.809079 255 255 255 255 
0.108239 -0.0864941 0.120187 0.631821 -0.12569 0.764856 255 255 255 255 
-0.120471 0.193337 0.106433 -0.644914 0.513782 0.565786 255 255 255 255 
-0.161332 0.0276093 -0.186982 -0.843579 -0.304693 -0.442195 255 255 255 255 
-0.153774 0.064634 0.0824528 -0.437056 -0.688516 0.57873 255 255 255 255 
-0.170239 0.125243 -0.200392 -0.854435 -0.0306359 -0.518655 255 255 255 255 
0.166007 0.155707 0.048527 0.852528 0.249211 0.459446 255 255 255 255 
0.0905425 -0.153792 -0.0855708 0.893595 -0.186099 -0.40848 255 255 255 255 
0.0830366 0.212757 0.112362 0.499311 0.499315 0.708077 255 255 255 255 
-0.195228 0.0304288 -0.0939668 -0.989272 -0.109273 0.0969589 255 255 255 255 
0.0221102 0.351013 -0.17494 0.0636021 0.956986 -0.283077 255 255 255 255 
-0.0330804 -0.352628 -0.0160283 -0.105727 -0.993828 -0.0335745 255 255 255 255 
0.142321 -0.0647652 -0.0678252 0.534268 -0.482042 -0.694402 255 255 255 255 
-0.036685 0.348254 -0.00747332 -0.124732 0.991038 0.0478036 255 255 255 255 
-0.169169 -0.0716468 -0.0419067 -0.636689 -0.524296 -0.565456 255 255 255 255 
0.169943 0.0453003 0.0505075 0.853223 -0.0423572 0.519823 255 255 255 255 
-0.0360115 -0.221339 0.169046 -0.0717007 -0.995222 0.0662792 255 255 255 255 
0.147495 -0.0536281 0.06005 0.949737 -0.216553 0.226065 255 255 255 255 
-0.0190408 -0.0320087 -0.24973 -0.0114164 -0.511721 -0.859076 255 255 255 255 
0.0542994 0.063983 0.157978 0.307607 -0.00591118 0.951495 255 255 255 255 
-0.0984932 -0.0800121 0.157037 -0.690198 0.0381262 0.722615 255 255 255 255 
0.0571758 0.035987 -0.260576 0.318418 -0.265399 -0.91004 255 255 255 255 
0.0530393 -0.347631 -0.106429 0.0984238 -0.972972 -0.208896 255 255 255 255 
0.196381 0.143885 -0.130515 0.954673 -0.00331946 -0.297638 255 255 255 255 
-0.193832 0.0706011 -0.0390634 -0.966634 -0.255237 0.0217643 255 255 255 255 
0.0906896 -0.211242 0.0978182 0.372717 -0.927939 0.00318203 255 255 255 255 
-0.144442 -0.0661117 0.100636 -0.95053 -0.157194 0.267922 255 255 255 255 
-0.187706 0.049823 -0.0348358 -0.974173 -0.204487 0.0957735 255 255 255 255 
-0.0251753 -0.308175 0.0633581 -0.212842 -0.0935981 0.972593 255 255 255 255 
-0.0771467 -0.0852789 0.180179 -0.647088 0.100675 0.755739 255 255 255 255 
0.0602614 -0.120053 -0.149144 0.592102 -0.258529 -0.763268 255 255 255 255 
-0.0541481 0.344752 0.00799266 -0.167458 0.984529 0.0515721 255 255 255 255 
-0.10802 -0.300981 -0.0871538 -0.953598 -0.0950514 -0.285685 255 255 255 255 
0.189451 0.0893536 -0.139008 0.94318 -0.124222 -0.308188 255 255 255 255 
0.0890637 0.00389996 0.15833 0.550712 0.165769 0.818069 255 255 255 255 
-0.0724731 -0.34748 0.0258522 -0.163093 -0.984547 0.063774 255 255 255 255 
-0.00131359 -0.120867 -0.163113 0.0298887 -0.297691 -0.954194 255 255 255 255 
-0.0874503 0.335905 -0.175629 -0.301965 0.886982 -0.3494 255 255 255 255 
-0.0119231 0.310307 0.163156 -0.0930051 -0.318557 0.94333 255 255 255 255 
0.200031 0.200641 -0.110164 0.96045 0.168007 -0.222058 255 255 255 255 
0.131435 0.317435 -0.107281 0.799086 0.587096 -0.129536 255 255 255 255 
-0.0298344 -0.222618 0.155054 -0.061259 -0.996603 0.0550359 255 255 255 255 
-0.0142472 -0.347804 -0.0694761 -0.071572 -0.991148 -0.111816 255 255 255 255 
-0.162991 0.218687 -0.192114 -0.84216 0.189724 -0.504749 255 255 255 255 
0.0177806 -0.130938 0.192645 0.263915 -0.255134 0.930191 255 255 255 255 
-0.0471537 0.344737 0.0691088 -0.138986 0.986948 0.0813416 255 255 255 255 
-0.127904 0.0628126 0.107762 -0.511692 -0.561701 0.650125 255 255 255 255 
0.0452713 -0.0460853 0.204571 0.858694 -0.499297 0.11553 255 255 255 255 
-0.0604281 0.350804 -0.115613 -0.162004 0.98463 -0.0652519 255 255 255 255 
-0.0711727 0.224509 0.122582 -0.420045 0.4311 0.798571 255 255 255 255 
0.020522 0.355641 -0.137213 0.0378881 0.989349 -0.140545 255 255 255 255 
-0.00904781 -0.354688 -0.0135551 -0.0772016 -0.996366 -0.0359946 255 255 255 255 
0.204136 0.188039 -0.100125 0.972338 0.13102 -0.193371 255 255 255 255 
0.00657822 -0.281261 0.0673057 0.0398573 -0.0796331 0.996027 255 255 255 255 
0.142219 0.296197 -0.110252 0.808614 0.579577 -0.101159 255 255 255 255 
-0.016702 -0.349133 -0.0534721 -0.0754294 -0.992376 -0.0974718 255 255 255 255 
-0.165428 0.232449 -0.182274 -0.854015 0.207971 -0.476871 255 255 255 255 
-0.12123 0.0527907 0.111855 -0.559351 -0.438093 0.703705 255 255 255 255 
0.00939497 0.355697 -0.141673 0.00758622 0.988775 -0.149222 255 255 255 255 
-0.196094 0.0716147 -0.102338 -0.985516 -0.150657 -0.0778472 255 255 255 255 
-0.052837 -0.155421 -0.145931 -0.329413 -0.200486 -0.922655 255 255 255 255 
0.187573 0.249361 -0.0865365 0.848673 0.528828 -0.00972069 255 255 255 255 
-0.0185769 -0.2926 0.0650538 -0.168574 -0.0844458 0.982065 255 255 255 255 
-0.0714487 0.340926 0.058982 -0.218088 0.97284 0.0775875 255 255 255 255 
-0.120169 0.0647094 0.122046 -0.560136 -0.410662 0.719447 255 255 255 255 
-0.0413318 0.351652 -0.147035 -0.134522 0.976781 -0.166743 255 255 255 255 
0.191953 0.241633 -0.0981753 0.887377 0.453203 -0.0846681 255 255 255 255 
-0.00502512 -0.260199 0.0680459 -0.0599335 -0.104873 0.992678 255 255 255 255 
-0.0846282 0.337779 0.0479888 -0.24976 0.965673 0.0713853 255 255 255 255 
0.202344 0.22506 -0.0810962 0.939428 0.338479 -0.0539186 255 255 255 255 
0.201572 0.22233 -0.0897845 0.947393 0.301966 -0.106125 255 255 255 255 
-0.191205 0.163595 0.0247668 -0.831866 0.124002 0.540946 255 255 255 255 
-0.00531201 -0.0505989 0.257386 0.0188172 -0.985932 0.166082 255 255 255 255 
-0.0633491 -0.128908 0.187995 -0.503512 -0.0732987 0.860873 255 255 255 255 
-0.129917 -0.131711 0.115354 -0.923515 -0.196467 0.329425 255 255 255 255 
-0.169931 0.114802 0.105935 -0.904054 0.338293 0.261235 255 255 255 255 
-0.00961586 -0.165471 0.191583 0.0616545 -0.1667 0.984078 255 255 255 255 
-0.172021 0.102151 0.080492 -0.96038 0.172251 0.219088 255 255 255 255 
0.149337 0.284578 0.00399316 0.974784 0.178136 0.134401 255 255 255 255 
0.0309898 -0.0564144 0.214163 0.0372381 -0.988514 0.146473 255 255 255 255 
-0.0215786 -0.0453413 0.260738 -0.0571064 -0.96835 0.242975 255 255 255 255 
-0.0581504 -0.136668 -0.148282 -0.431689 -0.318444 -0.843942 255 255 255 255 
0.0256673 -0.223661 0.0787522 0.0867712 -0.996033 -0.0197226 255 255 255 255 
-0.0832692 -0.116013 -0.136806 -0.650359 -0.39453 -0.649137 255 255 255 255 
0.0240469 -0.240211 0.06728 0.191288 -0.0932185 0.977097 255 255 255 255 
-0.19492 0.0632458 -0.0820825 -0.986531 -0.162943 0.0143258 255 255 255 255 
-0.0007632 0.355789 -0.128733 -0.0273955 0.994911 -0.0969653 255 255 255 255 
0.0558435 -0.051886 0.174152 0.565976 -0.116844 0.8161 255 255 255 255 
0.106951 -0.105898 0.120242 0.667668 -0.0645843 0.741652 255 255 255 255 
-0.0428067 0.0546478 0.173701 -0.652846 0.247957 0.715758 255 255 255 255 
0.0168825 0.0276667 -0.267898 0.122404 -0.287965 -0.949786 255 255 255 255 
0.0756093 -0.113303 -0.135663 0.720905 -0.279227 -0.634293 255 255 255 255 
0.057519 -0.0175865 0.185575 0.795171 0.213414 0.567589 255 255 255 255 
0.0767037 0.201986 -0.271158 0.323654 0.0669013 -0.943807 255 255 255 255 
-0.151884 -0.0838358 0.0555893 -0.958248 -0.124312 0.257503 255 255 255 255 
0.132749 0.0286111 0.115393 0.714835 -0.246318 0.654476 255 255 255 255 
0.0937925 -0.251968 -0.100819 0.943306 0.101037 -0.316172 255 255 255 255 
-0.0908837 -0.263032 -0.117025 -0.822759 0.0657322 -0.564576 255 255 255 255 
-0.0970591 0.0340232 -0.254285 -0.403608 -0.282232 -0.870313 255 255 255 255 
0.00103666 0.195702 -0.28276 0.0191904 0.109035 -0.993853 255 255 255 255 
-0.154486 0.141258 -0.22227 -0.77348 0.0201447 -0.633501 255 255 255 255 
0.0240551 0.300475 -0.251084 0.0980136 0.494645 -0.86355 255 255 255 255 
-0.20824 0.135735 -0.00463972 -0.981316 0.021358 0.191214 255 255 255 255 
0.0667539 -0.0491511 -0.213652 0.393146 -0.605658 -0.691819 255 255 255 255 
-0.132777 -0.0412168 -0.148526 -0.700515 -0.611924 -0.367189 255 255 255 255 
0.0817241 -0.164993 0.14911 0.701117 -0.0962496 0.70652 255 255 255 255 
-0.169247 0.0141681 0.0294461 -0.952016 -0.137956 0.273191 255 255 255 255 
0.101727 -0.334413 -0.0787189 0.581632 -0.79898 -0.152758 255 255 255 255 
-0.0440495 -0.0200601 0.226008 -0.790366 0.322928 0.520615 255 255 255 255 
0.0339827 0.260139 -0.266723 0.154935 0.342673 -0.926591 255 255 255 255 
0.1547 -0.0351323 0.035591 0.960143 -0.220147 0.172223 255 255 255 255 
-0.174717 0.298399 -0.0666863 -0.720397 0.69354 0.00551598 255 255 255 255 
0.0309376 0.0199355 0.228864 0.850944 0.347832 0.393583 255 255 255 255 
0.13422 0.303761 -0.146267 0.751104 0.616866 -0.235202 255 255 255 255 
-0.0488502 0.30722 0.154389 -0.288347 -0.226128 0.930442 255 255 255 255 
0.136282 0.134978 -0.229361 0.696714 -0.036756 -0.716406 255 255 255 255 
-0.152263 -0.01356 -0.167093 -0.773616 -0.492978 -0.398109 255 255 255 255 
-0.108936 0.289046 -0.221783 -0.52446 0.516251 -0.677073 255 255 255 255 
0.0721644 -0.0238251 0.16656 0.563273 -0.109768 0.818947 255 255 255 255 
0.107187 -0.299469 -0.0708241 0.990667 0.0654437 -0.119565 255 255 255 255 
-0.112244 0.24642 0.0815769 -0.70014 -0.119571 0.703922 255 255 255 255 
-0.011578 -0.09534 -0.173721 -0.012213 -0.479777 -0.877305 255 255 255 255 
-0.196109 0.124928 -0.126347 -0.969804 -0.0447789 -0.23974 255 255 255 255 
-0.0898981 0.16869 0.152921 -0.352458 0.676206 0.64693 255 255 255 255 
0.0369222 -0.240891 0.063815 0.328343 -0.0758244 0.94151 255 255 255 255 
-0.108669 -0.245078 -0.0372382 -0.999173 -0.0238254 -0.0329567 255 255 255 255 
-0.123292 0.145145 0.16765 -0.491166 0.681915 0.541986 255 255 255 255 
0.139923 -0.152779 0.0051386 0.946062 -0.267267 0.183123 255 255 255 255 
0.131102 0.27947 0.101758 0.527562 -0.485811 0.696898 255 255 255 255 
-0.080309 0.293237 0.134524 -0.461957 -0.258128 0.848508 255 255 255 255 
-0.0341831 -0.00420849 0.237658 -0.778344 0.354972 0.517857 255 255 255 255 
0.155234 0.273295 -0.161645 0.784184 0.530617 -0.321714 255 255 255 255 
0.169078 0.171934 -0.187184 0.840046 0.0517658 -0.54004 255 255 255 255 
-0.0376205 0.344765 0.0968182 -0.114556 0.986277 0.118892 255 255 255 255 
-0.0406547 0.137496 0.187917 -0.203422 -0.104428 0.973506 255 255 255 255 
0.149693 0.268119 0.00124471 0.965367 0.181234 0.187673 255 255 255 255 
0.0807105 0.157963 0.167221 0.283205 0.818689 0.499543 255 255 255 255 
0.153346 0.249097 -0.192083 0.780359 0.312172 -0.541838 255 255 255 255 
-0.175527 0.100347 -0.187111 -0.888917 -0.0981317 -0.447434 255 255 255 255 
-0.106589 0.111528 0.166623 -0.367815 -0.490815 0.789818 255 255 255 255 
-0.101345 0.30845 0.126367 -0.553949 -0.20491 0.80694 255 255 255 255 
0.0493541 -0.153506 0.174268 0.537268 -0.0727672 0.840267 255 255 255 255 
0.14591 -0.0354878 -0.111877 0.731524 -0.628978 -0.263171 255 255 255 255 
0.113523 -0.0688367 -0.0886578 0.727654 -0.514551 -0.453605 255 255 255 255 
0.0302199 0.356054 -0.109892 0.0306307 0.997027 -0.070703 255 255 255 255 
-0.107023 -0.199343 0.134464 -0.825944 -0.345175 0.445725 255 255 255 255 
0.107833 -0.155154 0.115877 0.866102 -0.228673 0.444494 255 255 255 255 
-0.0780405 -0.100732 0.179163 -0.639356 0.0228415 0.768572 255 255 255 255 
0.0400778 0.316385 0.162826 0.205953 -0.249059 0.946337 255 255 255 255 
-0.0945135 -0.140859 -0.112834 -0.792707 -0.280923 -0.541016 255 255 255 255 
0.0700011 -0.064356 -0.192926 0.422428 -0.671534 -0.608767 255 255 255 255 
-0.0293425 0.168196 0.167341 -0.126221 0.57319 0.809643 255 255 255 255 
-0.0637016 -0.0103801 -0.251072 -0.324367 -0.413114 -0.850954 255 255 255 255 
0.178533 -0.00109529 -0.0945528 0.974976 -0.148943 0.165039 255 255 255 255 
0.0829227 -0.21947 0.0205241 0.897335 -0.0187593 0.440952 255 255 255 255 
0.209036 0.170001 -0.0832834 0.986776 0.0886546 -0.135695 255 255 255 255 
-0.207444 0.180865 -0.0477847 -0.996566 0.0760333 -0.0327981 255 255 255 255 
-0.12748 -0.16023 0.101612 -0.918403 -0.253693 0.303604 255 255 255 255 
-0.11055 -0.198619 0.125903 -0.85244 -0.331021 0.404688 255 255 255 255 
-0.0411364 0.0295214 -0.269383 -0.152607 -0.262553 -0.952773 255 255 255 255 
0.0431042 -0.355819 -0.0204403 0.0261132 -0.997699 -0.0625619 255 255 255 255 
-0.138261 0.318019 -0.00451877 -0.478203 0.876195 0.0600296 255 255 255 255 
0.170298 0.130039 0.0483561 0.881508 0.161633 0.443642 255 255 255 255 
-0.0594562 -0.00906992 0.189315 -0.703775 0.274974 0.65505 255 255 255 255 
0.0514035 0.302394 0.156736 0.243084 -0.279145 0.928971 255 255 255 255 
-0.155517 0.144666 0.106244 -0.839878 0.43689 0.322073 255 255 255 255 
-0.14702 -0.173436 0.0332535 -0.92081 -0.281132 0.270323 255 255 255 255 
-0.153683 0.0556808 -0.213555 -0.800893 -0.220334 -0.556798 255 255 255 255 
-0.0161916 0.0359947 0.230757 -0.713207 0.424278 0.557964 255 255 255 255 
-0.0960699 -0.213312 -0.0947317 -0.921565 -0.0147396 -0.387944 255 255 255 255 
-0.208483 0.165816 -0.0460268 -0.998367 0.0537676 -0.0192936 255 255 255 255 
0.0957293 0.325033 -0.190878 0.504182 0.737625 -0.449122 255 255 255 255 
-0.0881186 0.265322 0.113102 -0.535265 -0.296673 0.790871 255 255 255 255 
0.0339375 0.345955 0.0523851 0.0642491 0.993831 0.0903952 255 255 255 255 
-0.149404 0.133909 0.148123 -0.740689 0.497257 0.451791 255 255 255 255 
-0.192226 0.264479 -0.0239978 -0.936284 0.319969 0.144884 255 255 255 255 
-0.0300134 -0.196684 -0.150348 -0.282071 -0.016833 -0.959246 255 255 255 255 
0.197349 0.237661 -0.0695491 0.889499 0.454963 0.0424247 255 255 255 255 
-0.101447 -0.0612685 -0.17118 -0.567156 -0.665806 -0.484806 255 255 255 255 
-0.0964987 0.334072 0.0501487 -0.283936 0.955783 0.0765491 255 255 255 255 
-0.165336 0.0251516 0.0527282 -0.948263 -0.113816 0.296385 255 255 255 255 
-0.121488 -0.144492 0.135514 -0.893984 -0.212288 0.394623 255 255 255 255 
0.165712 0.197221 -0.18924 0.828007 0.110128 -0.549796 255 255 255 255 
-0.181381 -0.0161307 -0.0318387 -0.970441 -0.0887034 0.224445 255 255 255 255 
-0.00945069 -0.32695 0.0646531 -0.111028 -0.0899374 0.989739 255 255 255 255 
-0.0951759 0.272829 0.112602 -0.559959 -0.299733 0.772403 255 255 255 255 
0.147649 -0.0828675 0.0297308 0.960267 -0.200382 0.194253 255 255 255 255 
0.190708 0.246881 -0.0784588 0.863411 0.50422 0.0168239 255 255 255 255 
-0.177031 0.0571228 0.0353259 -0.949144 -0.154065 0.274571 255 255 255 255 
0.146733 0.242731 0.0139986 0.981442 -0.0315086 0.189151 255 255 255 255 
0.203183 0.139975 -0.107714 0.971352 -0.0139596 -0.237233 255 255 255 255 
-0.175107 -0.0199504 -0.00857867 -0.964022 -0.10065 0.24603 255 255 255 255 
-0.128716 -0.196275 0.00326739 -0.570161 -0.797782 -0.196111 255 255 255 255 
0.196325 0.185425 -0.127075 0.95287 0.102606 -0.285501 255 255 255 255 
0.0356705 0.0213728 0.206399 0.854427 0.327497 0.40336 255 255 255 255 
-0.143712 0.234005 -0.214879 -0.754383 0.24499 -0.609004 255 255 255 255 
