ply
format ascii 1.0
comment VCGLIB generated
element vertex 622
property float x
property float y
property float z
property float nx
property float ny
property float nz
property uchar red
property uchar green
property uchar blue
property uchar alpha
element face 0
property list uchar int vertex_indices
end_header
-0.0365511 0.0813486 0.120676 -0.971405 0.235222 0.0322955 255 255 255 255 
-0.041733 0.0248514 -0.0839899 -0.974013 0.138101 -0.179517 255 255 255 255 
-0.0239811 0.10276 0.236654 -0.927384 0.371325 0.0455638 255 255 255 255 
0.0496263 0.0105238 -0.00526099 0.997657 0.0611299 -0.0307098 255 255 255 255 
-0.0396499 0.0604323 0.123612 -0.98452 0.171929 0.0340792 255 255 255 255 
0.036388 -0.0731508 0.253843 0.589416 -0.789741 0.169994 255 255 255 255 
-0.019796 -0.0865693 0.231275 -0.286092 -0.932516 0.220375 255 255 255 255 
-0.0344101 -0.0267336 0.371516 0.45361 -0.708052 0.541202 255 255 255 255 
-0.03333 0.0913 0.157613 -0.960671 0.275034 0.0382938 255 255 255 255 
0.0346508 -0.0436314 -0.12057 0.95141 -0.208164 -0.226905 255 255 255 255 
0.0487902 -0.00838277 0.106829 0.999552 0.0241271 0.017728 255 255 255 255 
-0.0251475 0.0985448 0.244698 -0.926538 0.374363 0.037141 255 255 255 255 
-0.0429252 0.0269115 0.353874 -0.923924 0.32703 0.198534 255 255 255 255 
-0.0430534 0.0729415 -0.0127522 -0.951461 0.296783 -0.0814921 255 255 255 255 
-0.0165821 -0.0673733 0.337088 -0.161171 -0.969495 0.184673 255 255 255 255 
0.0494729 -0.0461423 0.0573515 0.992326 -0.122048 0.019819 255 255 255 255 
-0.0444614 -0.0638586 0.102941 -0.972721 -0.231633 0.0126208 255 255 255 255 
0.021262 -0.000287262 -0.19338 0.980138 0.0853291 -0.17902 255 255 255 255 
-0.0465916 0.058282 -0.0106564 -0.972229 0.225083 -0.0640951 255 255 255 255 
-0.0255508 0.0988965 0.236551 -0.93025 0.364609 0.0411729 255 255 255 255 
-0.0489158 -0.0669567 -0.0133728 -0.98323 -0.178411 -0.0377797 255 255 255 255 
0.0482494 -0.0666921 0.00424952 0.994239 -0.106562 -0.0115848 255 255 255 255 
0.0491346 0.0158297 0.00790798 0.997241 0.0730346 -0.0133056 255 255 255 255 
0.048724 -0.00244499 0.078437 0.999107 0.0368244 0.0207131 255 255 255 255 
-0.0450215 -0.0706376 -0.0552801 -0.947952 -0.296479 -0.11613 255 255 255 255 
0.016097 -0.102429 -0.00155643 0.353599 -0.934209 -0.0471351 255 255 255 255 
0.0494461 0.000351994 0.0424548 0.999202 0.037288 0.0143157 255 255 255 255 
0.0495114 0.00515151 0.0257191 0.998834 0.048074 0.00447272 255 255 255 255 
0.0455177 -0.0761888 0.0321027 0.984754 -0.173464 0.013039 255 255 255 255 
0.0505962 -0.0217021 0.0305219 0.999794 -0.0185802 0.00816181 255 255 255 255 
0.0496678 -0.00916693 0.0625778 0.999735 0.0128909 0.0190857 255 255 255 255 
-0.0456039 0.0372172 0.326489 -0.944975 0.286645 0.15766 255 255 255 255 
-0.0395756 0.085386 0.00184459 -0.933639 0.351502 -0.0690244 255 255 255 255 
0.049407 -0.0186526 0.126824 0.99971 -0.0188949 0.0149107 255 255 255 255 
0.0250239 0.0936587 0.27163 0.864977 0.489752 0.109348 255 255 255 255 
-0.0167235 0.0678895 -0.129296 -0.948454 0.252121 -0.192018 255 255 255 255 
-0.0211078 0.0791568 -0.0972256 -0.933375 0.308297 -0.183749 255 255 255 255 
-0.0313005 -0.0367708 -0.133925 -0.974481 -0.115659 -0.192379 255 255 255 255 
0.00292229 -0.0945866 0.206598 0.0609972 -0.977554 0.201661 255 255 255 255 
-0.0412724 0.0545448 0.0959529 -0.986874 0.158067 0.0330963 255 255 255 255 
-0.0125611 0.0701493 -0.142552 -0.951186 0.245967 -0.1864 255 255 255 255 
0.0507583 0.0283585 0.308181 0.959228 0.246835 0.137678 255 255 255 255 
-0.0507276 -0.0554542 0.000215706 -0.990883 -0.133336 -0.0192948 255 255 255 255 
-0.0528149 0.0117134 0.140354 0.0734814 0.985507 0.152891 255 255 255 255 
0.01964 0.101821 -0.0473006 0.879658 0.448045 -0.159551 255 255 255 255 
0.0352261 -0.109654 0.128494 -0.909098 -0.375807 -0.17975 255 255 255 255 
-0.0327401 -0.0283511 -0.132626 -0.978079 -0.0731496 -0.194964 255 255 255 255 
-0.0403016 -0.0979675 0.0913395 0.9158 -0.320827 -0.241619 255 255 255 255 
-0.0329869 0.0611423 0.341838 -0.908002 0.371015 0.194629 255 255 255 255 
-0.0039248 0.0457122 -0.333901 -0.875562 0.475946 0.0828717 255 255 255 255 
-0.0388582 0.0855162 -0.00638938 -0.929788 0.358712 -0.0825763 255 255 255 255 
-0.0214449 0.0716477 -0.108031 -0.941098 0.278185 -0.192216 255 255 255 255 
0.0333022 0.0572177 -0.0914132 0.93664 0.280446 -0.209893 255 255 255 255 
0.0548965 -0.134826 0.136712 0.960996 0.273697 0.0397164 255 255 255 255 
0.0142909 -0.103055 0.00265464 0.351591 -0.935126 -0.0438494 255 255 255 255 
0.0424019 -0.0736211 0.0804245 0.951363 -0.307475 0.0191685 255 255 255 255 
0.00211759 -0.0676245 -0.225732 0.949319 -0.288758 -0.124147 255 255 255 255 
-0.0471683 -0.0440171 -0.0717531 -0.981588 -0.127538 -0.142197 255 255 255 255 
0.0274842 -0.104444 0.19088 -0.266794 -0.545179 0.794733 255 255 255 255 
0.0433042 -0.0681126 0.24904 0.838367 -0.536079 0.0987979 255 255 255 255 
0.00481708 -0.059864 0.383764 -0.027741 -0.977682 0.20825 255 255 255 255 
-0.0206976 0.0644212 0.364164 -0.124266 0.879035 0.460278 255 255 255 255 
-0.0426918 0.0437802 0.238652 -0.973984 0.220022 -0.054268 255 255 255 255 
-0.047896 -0.0680605 -0.0381583 -0.969632 -0.230681 -0.0812434 255 255 255 255 
-0.0378056 -0.0810231 0.178192 -0.989012 -0.142039 0.0409886 255 255 255 255 
0.0424722 0.00713642 -0.0838654 0.981747 0.074537 -0.174979 255 255 255 255 
-0.00505041 -0.0665993 -0.213713 -0.932063 -0.337493 -0.131746 255 255 255 255 
0.0680167 -0.014285 0.172579 0.594049 0.0858919 0.79983 255 255 255 255 
0.0482293 -0.00303105 0.106286 0.998893 0.0431716 0.0186689 255 255 255 255 
0.00544249 0.0306695 -0.282729 0.981474 0.188342 -0.0351524 255 255 255 255 
0.0446621 0.0515398 0.0368363 0.98807 0.153514 0.0123055 255 255 255 255 
-0.0398213 0.0625785 0.109766 -0.983596 0.177173 0.0338877 255 255 255 255 
0.0413995 -0.104694 0.154231 0.984584 0.154206 0.0825532 255 255 255 255 
-0.000641182 0.151855 0.142279 0.871483 0.490194 0.0150615 255 255 255 255 
0.04022 -0.0659302 0.270309 0.708308 -0.689567 0.150986 255 255 255 255 
0.044951 0.00426178 0.163767 0.995754 0.0900699 0.0190335 255 255 255 255 
0.0080458 -0.0922352 -0.117268 0.913546 -0.370059 -0.168791 255 255 255 255 
0.0374817 0.0599955 0.235741 0.961535 0.274612 0.00631589 255 255 255 255 
0.033665 0.0701463 0.216031 0.966223 0.256464 0.0253 255 255 255 255 
-0.0494849 -0.030814 0.109553 -0.996143 -0.0868124 0.0127607 255 255 255 255 
-0.00840827 0.0138365 -0.340139 -0.997198 0.0691926 -0.0284181 255 255 255 255 
-0.0453716 0.0519698 0.0317203 -0.987053 0.160269 0.00634931 255 255 255 255 
0.0114386 0.13437 0.137669 0.880461 0.473852 0.0158907 255 255 255 255 
-0.0421927 -0.0301835 0.372224 0.479117 -0.687515 0.545683 255 255 255 255 
-0.000732976 0.129993 -0.0669984 0.899707 0.40764 -0.156068 255 255 255 255 
0.0479326 -0.0394388 0.21056 0.995706 -0.0924271 -0.00514774 255 255 255 255 
0.000937579 -0.110105 -0.147305 -0.949526 -0.282493 -0.136375 255 255 255 255 
0.00937551 0.13948 0.16611 0.87042 0.490491 0.0422715 255 255 255 255 
0.0316536 -0.0011134 -0.138035 0.975406 0.0648879 -0.210649 255 255 255 255 
0.0196773 -0.0653624 0.353838 0.030234 -0.980085 0.196266 255 255 255 255 
0.0508739 -0.0299723 0.363426 0.989441 -0.139611 0.038928 255 255 255 255 
0.0253703 0.0963855 0.238996 0.920935 0.383468 0.0695023 255 255 255 255 
0.0546463 -0.0339047 0.262614 0.992414 -0.118999 0.0308842 255 255 255 255 
0.0338228 0.0918163 0.112554 0.957541 0.286814 0.029219 255 255 255 255 
0.0401271 0.0335413 0.204337 0.986185 0.165549 -0.00566086 255 255 255 255 
-0.0534913 -0.0406424 0.262537 -0.987614 -0.155168 0.0232843 255 255 255 255 
-0.0518703 -0.0388717 0.00797523 -0.997534 -0.0693742 -0.0106082 255 255 255 255 
0.00277485 0.0441382 -0.39743 0.998577 0.0391289 -0.0362371 255 255 255 255 
0.0253289 0.0861586 0.299092 0.81381 0.550602 0.18588 255 255 255 255 
0.0328258 0.022088 0.393461 0.841176 0.450125 0.299684 255 255 255 255 
-0.0407905 -0.0714096 0.141284 -0.978187 -0.207712 0.00250225 255 255 255 255 
-0.0422254 -0.101615 0.154344 -0.901428 -0.176517 0.395309 255 255 255 255 
0.00952753 -0.0705946 -0.156053 0.899964 -0.385062 -0.20443 255 255 255 255 
0.0372534 -0.0853906 0.159614 0.987543 -0.154194 0.0313557 255 255 255 255 
0.0355442 0.0675509 0.160206 0.981096 0.190232 0.0355246 255 255 255 255 
-0.0449726 -0.0531976 0.182958 -0.986781 -0.162032 -0.00303296 255 255 255 255 
-0.00473083 -0.106777 0.081919 -0.141192 -0.989801 0.0189475 255 255 255 255 
-0.040837 0.0669494 0.0742357 -0.982365 0.184572 0.0298621 255 255 255 255 
-0.0350639 0.0706249 0.189629 -0.976104 0.215882 0.0248329 255 255 255 255 
-0.0184596 0.113464 -0.021429 -0.862048 0.493655 -0.114797 255 255 255 255 
-0.0108568 0.107106 -0.079966 -0.922412 0.36196 -0.134689 255 255 255 255 
0.0481913 0.0451795 0.277342 0.950822 0.300486 0.0751329 255 255 255 255 
-0.0520746 -0.0385598 -0.00819584 -0.996933 -0.0722326 -0.0301156 255 255 255 255 
-0.0487767 -0.0379988 0.115288 -0.992578 -0.121226 0.00961589 255 255 255 255 
0.0496083 -0.120315 0.126339 0.960844 0.276283 0.0211164 255 255 255 255 
-0.0508403 -0.0272513 0.0596503 -0.999081 -0.0393347 0.0170405 255 255 255 255 
0.00900735 -0.0385849 -0.325467 0.997721 -0.0623678 -0.025735 255 255 255 255 
0.0367687 0.0815418 0.0980277 0.968723 0.24613 0.0315446 255 255 255 255 
-0.00038202 0.133776 -0.119729 -0.976964 0.197858 -0.0799544 255 255 255 255 
0.0250422 0.0978369 -0.0376224 0.88435 0.442956 -0.147358 255 255 255 255 
0.0367066 0.0937496 0.0122722 0.914427 0.399845 -0.0628249 255 255 255 255 
-0.0865619 -0.0114161 0.155915 -0.676111 -0.0345063 0.735991 255 255 255 255 
-0.00768386 0.114222 0.256986 -0.117432 0.934168 0.336956 255 255 255 255 
-0.0063769 -0.101039 0.143268 0.122977 -0.989347 0.0779037 255 255 255 255 
0.0389618 -0.078257 0.149583 0.9779 -0.208513 0.0152826 255 255 255 255 
-0.0495098 0.00566274 -0.0450015 -0.993113 0.0620794 -0.0993598 255 255 255 255 
0.050756 -0.0421327 0.238221 0.991358 -0.131167 -0.00193486 255 255 255 255 
0.00675754 -0.0611802 -0.350993 0.996943 -0.0717445 -0.0309478 255 255 255 255 
-0.0310308 -0.0912616 -0.0479775 -0.731672 -0.67441 -0.0991325 255 255 255 255 
-0.0481199 -0.0173151 0.170349 -0.998861 -0.0469771 -0.00831273 255 255 255 255 
-0.0457622 -0.0506239 0.196736 -0.988679 -0.149435 -0.0135034 255 255 255 255 
0.0345881 -0.073742 -0.0844749 0.897169 -0.402708 -0.181424 255 255 255 255 
0.0478424 -0.0406027 0.1583 0.995228 -0.0969607 0.0109156 255 255 255 255 
0.00915322 -0.020596 -0.329145 0.999147 -0.0165999 -0.0377986 255 255 255 255 
0.00176068 -0.101852 -0.395525 0.99358 -0.103 -0.0467962 255 255 255 255 
0.00595781 -0.052524 -0.261852 0.967125 -0.247021 -0.0604097 255 255 255 255 
-0.0421085 -0.115166 0.165455 -0.984044 0.145041 0.103055 255 255 255 255 
-0.024155 0.0863076 0.315435 -0.170205 0.895517 0.411193 255 255 255 255 
-0.0389933 -0.0753354 0.185288 -0.987107 -0.15655 0.0333352 255 255 255 255 
-0.0305341 0.107748 0.0650514 -0.917196 0.398277 -0.0112793 255 255 255 255 
-0.0107105 -0.0385798 -0.271441 -0.994641 -0.087811 -0.0545675 255 255 255 255 
-0.00434399 -0.0719181 -0.194455 -0.930493 -0.33669 -0.1443 255 255 255 255 
0.0499776 -0.0458233 0.0247931 0.996895 -0.0784785 0.00648103 255 255 255 255 
0.0149306 0.12349 0.019583 0.822674 0.562672 -0.0812861 255 255 255 255 
0.0122217 0.0718749 0.352838 0.0291531 0.892285 0.450531 255 255 255 255 
0.0565199 -0.0163142 0.29068 0.994608 -0.0453514 0.0932606 255 255 255 255 
-0.0268605 0.0815959 -0.072491 -0.918763 0.354944 -0.172887 255 255 255 255 
0.0412306 0.0271559 0.204772 0.988211 0.152817 -0.00924735 255 255 255 255 
-0.035056 0.0771923 0.286792 -0.916555 0.394913 0.063016 255 255 255 255 
-0.0403581 0.0230272 0.371661 -0.890378 0.39151 0.232264 255 255 255 255 
0.0490477 -0.0233274 0.144573 0.999531 -0.0274818 0.0135397 255 255 255 255 
-0.0431143 -0.0604085 0.179362 -0.98573 -0.168192 0.00688977 255 255 255 255 
-0.0320575 0.00610593 0.424473 -0.732545 0.513743 0.446594 255 255 255 255 
-0.0346116 -0.0869279 -0.0516456 -0.771784 -0.626522 -0.108716 255 255 255 255 
0.031 -0.0939383 0.0993605 0.887575 -0.460531 0.011041 255 255 255 255 
-0.011786 0.119315 0.242169 -0.0790014 0.948226 0.307614 255 255 255 255 
-0.00522847 -0.0785837 -0.392874 -0.995907 -0.0862216 -0.0271125 255 255 255 255 
0.00107771 0.0674497 -0.185491 0.928795 0.309955 -0.203145 255 255 255 255 
0.0203241 -0.106757 0.00400304 -0.0124202 -0.999646 -0.0235075 255 255 255 255 
-0.00876299 -0.0535915 -0.246488 -0.974246 -0.207012 -0.0893858 255 255 255 255 
0.0434266 0.018356 0.148711 0.993024 0.115021 0.0259627 255 255 255 255 
0.0407052 -0.0593727 -0.0867226 0.95459 -0.233743 -0.184724 255 255 255 255 
-0.0305886 -0.00895749 -0.146273 -0.980665 0.00748288 -0.195552 255 255 255 255 
-0.00393548 -0.117618 -0.187378 0.962368 -0.219921 -0.159632 255 255 255 255 
-0.00217391 -0.104827 -0.134702 -0.939106 -0.314407 -0.138664 255 255 255 255 
-0.0528236 -0.00371258 0.246699 -0.997528 0.0440876 -0.0547116 255 255 255 255 
-0.00632724 0.139805 0.0651422 -0.89699 0.435892 -0.0735295 255 255 255 255 
0.0481048 -0.0581302 0.0496692 0.986896 -0.16022 0.0191246 255 255 255 255 
-0.00313435 -0.0102203 -0.411917 -0.997855 -0.00282419 -0.065409 255 255 255 255 
0.042589 0.020436 0.207469 0.990161 0.139189 -0.0144191 255 255 255 255 
-0.0328598 0.0788855 -0.0560456 -0.91942 0.359408 -0.159662 255 255 255 255 
0.0448763 0.0407267 -0.0525446 0.97649 0.170549 -0.131831 255 255 255 255 
0.00792364 -0.0316183 -0.346653 0.998607 -0.0318686 -0.0420568 255 255 255 255 
0.0103837 -0.0725407 0.324335 -0.0553494 -0.979865 0.191837 255 255 255 255 
0.00855322 0.0799083 0.33714 -0.0405973 0.898275 0.437555 255 255 255 255 
-0.0428225 -0.0764177 0.0772628 -0.964364 -0.263645 0.0221978 255 255 255 255 
0.0266877 -0.0731023 0.18486 0.527018 -0.309525 0.791484 255 255 255 255 
-0.0509991 -0.0265811 0.349966 -0.965581 -0.252271 0.0633447 255 255 255 255 
-0.011065 -0.0306545 -0.284476 -0.99801 -0.046588 -0.0424889 255 255 255 255 
0.0455709 0.0508752 0.0240424 0.987452 0.157919 -0.000737789 255 255 255 255 
0.123249 -0.0119034 0.104931 -0.619771 0.15733 -0.768851 255 255 255 255 
-0.000408559 0.140071 -0.144333 -0.991534 0.113177 -0.0636423 255 255 255 255 
0.00111267 0.0540321 -0.426783 0.998608 0.0275981 -0.0449399 255 255 255 255 
0.00572134 -0.0766762 -0.349532 0.995331 -0.0941428 -0.0212999 255 255 255 255 
0.00469824 -0.010539 -0.38342 0.998322 0.00288499 -0.0578363 255 255 255 255 
-0.0254947 -0.0996013 0.0856206 -0.473318 -0.880677 0.0194389 255 255 255 255 
-0.0510071 -0.00752854 -0.00140366 -0.999301 0.0296924 -0.0227252 255 255 255 255 
0.0173497 0.0604284 0.371309 0.36473 0.813248 0.453431 255 255 255 255 
0.00859724 -0.0719345 -0.163245 0.922315 -0.334276 -0.193894 255 255 255 255 
0.00221091 0.127255 -0.191427 -0.991021 0.103284 -0.0849067 255 255 255 255 
0.107519 -0.0406094 0.130368 0.722508 -0.162913 0.671894 255 255 255 255 
-0.00548654 0.0859625 -0.151356 -0.963314 0.218137 -0.156342 255 255 255 255 
-0.0327801 -0.0485002 0.392391 -0.240078 -0.944955 0.222311 255 255 255 255 
0.00559971 0.0316655 -0.32936 0.995541 0.0905043 -0.0265916 255 255 255 255 
0.0481945 -0.0281161 0.207417 0.999212 -0.0380992 -0.0110977 255 255 255 255 
-0.0529249 0.00587475 0.328744 -0.981715 0.12817 0.140742 255 255 255 255 
0.00333451 0.00201559 -0.398199 0.998228 0.0121038 -0.0582557 255 255 255 255 
-0.0131902 0.0583295 0.379757 -0.110942 0.871139 0.47834 255 255 255 255 
0.049425 -0.0292395 0.221335 0.99863 -0.0495532 -0.016801 255 255 255 255 
0.0464439 0.0206005 -0.0531805 0.986949 0.101509 -0.125011 255 255 255 255 
-0.0329777 -0.0108236 -0.13453 -0.980096 0.00338439 -0.198497 255 255 255 255 
-0.00115386 -0.0835214 -0.205094 0.950343 -0.265562 -0.16225 255 255 255 255 
-0.0217607 -0.0363973 -0.181795 -0.969031 -0.181338 -0.167615 255 255 255 255 
-0.104755 -0.0109807 0.137697 -0.705923 -0.0424095 0.707018 255 255 255 255 
0.0189419 0.0278447 0.416137 0.742494 0.545257 0.389098 255 255 255 255 
-0.0146727 0.0296926 -0.202033 -0.950998 0.249944 -0.18202 255 255 255 255 
-0.0105019 0.135097 0.0504118 -0.869501 0.490947 -0.0542152 255 255 255 255 
-0.0381028 0.0303683 -0.0954688 -0.968284 0.157533 -0.193931 255 255 255 255 
0.0468773 -0.0413781 0.388323 0.563743 -0.807145 0.175247 255 255 255 255 
0.0313837 -0.0716858 -0.0965542 0.903724 -0.3789 -0.199293 255 255 255 255 
-0.0437248 -0.0859749 0.0300265 -0.971097 -0.238405 0.0115854 255 255 255 255 
-0.00532077 0.0422411 -0.342059 -0.991246 0.131637 -0.0101304 255 255 255 255 
0.0496699 -0.0123254 0.0728197 0.9998 0.00340553 0.0197089 255 255 255 255 
-0.0394088 0.0430687 0.200038 -0.986744 0.161897 -0.0112024 255 255 255 255 
-0.0119442 -0.00614171 -0.277536 -0.997964 0.0349188 -0.0533678 255 255 255 255 
-0.0103868 0.135965 0.0821718 -0.894632 0.445078 -0.0392376 255 255 255 255 
0.00748244 0.10744 -0.0849913 0.896154 0.403537 -0.184572 255 255 255 255 
-0.00778627 0.139705 0.172569 0.00897138 0.978017 0.208333 255 255 255 255 
-0.0481737 -0.123693 0.135697 -0.974101 0.225409 0.0178031 255 255 255 255 
0.0156574 -0.00853176 -0.237287 0.991867 0.0238104 -0.125031 255 255 255 255 
-0.0477226 0.0460871 0.00365565 -0.986074 0.163845 -0.0284968 255 255 255 255 
0.0183052 -0.102779 0.0243256 0.250968 -0.967725 -0.0228977 255 255 255 255 
-0.0491343 -0.0332026 0.345922 -0.957481 -0.280968 0.0654832 255 255 255 255 
-0.0430616 -0.0671447 0.110849 -0.969436 -0.245198 0.00843395 255 255 255 255 
0.0405583 -0.0611419 0.285531 0.728862 -0.667666 0.151599 255 255 255 255 
-0.0357248 0.0697487 -0.0621132 -0.933519 0.31757 -0.166409 255 255 255 255 
0.0221591 0.1005 0.258495 0.879707 0.465581 0.0966903 255 255 255 255 
0.0359637 0.0600249 0.173326 0.982636 0.183021 0.0305087 255 255 255 255 
-0.0572829 -0.00734669 0.26954 -0.999742 0.00623684 0.021843 255 255 255 255 
0.0482205 0.0324146 0.251594 0.978419 0.20663 -6.68784e-005 255 255 255 255 
-0.051038 -0.0299787 0.23529 -0.997132 -0.0621908 -0.0431209 255 255 255 255 
0.0161351 0.130313 0.185004 0.888697 0.45374 0.065862 255 255 255 255 
-0.0339818 -0.0556105 -0.110373 -0.960457 -0.206213 -0.187077 255 255 255 255 
0.0530783 -0.0132029 0.33823 0.992982 0.0412068 0.110851 255 255 255 255 
-0.0468644 -0.0597676 0.237651 -0.987603 -0.155584 -0.0208363 255 255 255 255 
-0.114735 -0.00698751 0.127143 -0.715763 -0.0350024 0.697466 255 255 255 255 
0.00650613 -0.0432966 -0.364558 0.998027 -0.0403518 -0.0480945 255 255 255 255 
0.0380504 0.050337 0.217065 0.976654 0.214813 -0.0014056 255 255 255 255 
0.0465668 -0.0114781 0.191127 0.999114 0.041915 -0.00386082 255 255 255 255 
-0.0110662 0.0179059 -0.246587 -0.964073 0.23211 -0.129182 255 255 255 255 
0.0394752 0.0523941 0.120313 0.986632 0.159423 0.033799 255 255 255 255 
0.00246778 0.100378 -0.126804 0.940152 0.297094 -0.166882 255 255 255 255 
0.0296817 0.0770747 -0.073762 0.908992 0.368165 -0.195419 255 255 255 255 
-0.040496 0.0803147 0.0526733 -0.969677 0.244144 0.0110133 255 255 255 255 
0.00587401 -0.073623 0.319124 -0.0693829 -0.978592 0.193762 255 255 255 255 
0.0403854 -0.0253467 0.413691 0.83299 -0.0841975 0.546844 255 255 255 255 
-0.041752 -0.133869 0.131251 0.917953 -0.365399 -0.154418 255 255 255 255 
0.0446491 0.0185627 0.122862 0.994019 0.106433 0.0244768 255 255 255 255 
0.0365215 0.0713735 0.286793 0.888869 0.442718 0.117954 255 255 255 255 
-0.00689821 -0.0639131 -0.294224 -0.99327 -0.113294 -0.0240673 255 255 255 255 
0.0492672 0.00369122 0.358029 0.954809 0.237072 0.179268 255 255 255 255 
-0.0358851 0.0252616 0.384415 -0.848923 0.451774 0.274282 255 255 255 255 
0.0473837 -0.0734218 -0.000307289 0.99316 -0.115596 -0.0164406 255 255 255 255 
-0.0458185 -0.0780156 0.0328292 -0.974555 -0.223774 0.01297 255 255 255 255 
-0.0475128 0.00438731 0.136872 -0.999288 0.0298142 0.0231036 255 255 255 255 
0.0340398 0.0842685 -0.0381056 0.911486 0.386298 -0.141301 255 255 255 255 
0.0138196 -0.0916987 -0.101926 0.881001 -0.43794 -0.179015 255 255 255 255 
0.0471256 0.0241172 0.335997 0.947711 0.264757 0.178177 255 255 255 255 
0.0233616 0.0241254 -0.163697 0.958579 0.191593 -0.210756 255 255 255 255 
0.0480704 -0.0429206 0.30912 0.856044 -0.502306 0.121974 255 255 255 255 
0.0244041 -0.0867641 0.230861 0.379057 -0.904545 0.195228 255 255 255 255 
0.0502543 -0.0406274 0.0285178 0.9976 -0.0687158 0.00848933 255 255 255 255 
-0.0383479 0.0489687 0.339931 -0.920547 0.342632 0.187608 255 255 255 255 
-0.050592 0.000142347 -0.00437837 -0.998473 0.0479945 -0.027347 255 255 255 255 
-0.0256608 -0.0923454 -0.0634034 -0.777857 -0.61641 -0.12238 255 255 255 255 
0.0469892 0.0344614 0.319983 0.941339 0.295293 0.163347 255 255 255 255 
0.0093863 -0.00119181 0.404458 -0.0486058 -0.956983 0.286043 255 255 255 255 
0.0426205 -0.0758051 0.0673869 0.958405 -0.284631 0.0210824 255 255 255 255 
0.0065855 0.0765398 -0.145428 0.926448 0.316422 -0.203889 255 255 255 255 
-0.0436258 -0.0464533 0.339244 -0.918345 -0.388398 0.0760883 255 255 255 255 
0.0538927 -0.0625965 0.158925 -0.654214 -0.0961967 -0.750166 255 255 255 255 
-0.0177388 0.0927571 0.303469 -0.167113 0.900542 0.401369 255 255 255 255 
0.0213038 0.111751 0.220552 0.919541 0.383569 0.0855554 255 255 255 255 
-0.0451363 0.0285745 0.0744707 -0.993456 0.111198 0.0260725 255 255 255 255 
-0.0465249 -0.0025302 0.191729 -0.999414 0.0245282 -0.0238699 255 255 255 255 
0.0534138 -0.0213593 0.323133 0.988302 -0.116476 0.0984457 255 255 255 255 
-0.049612 0.0068095 0.352937 -0.948811 0.264003 0.173376 255 255 255 255 
-0.0537505 -0.0381983 0.283958 -0.970537 -0.219483 0.0994249 255 255 255 255 
-0.0188302 -0.0693827 -0.134409 -0.942179 -0.285882 -0.174846 255 255 255 255 
-0.0329854 -0.0697 0.283166 -0.483453 -0.85343 0.194757 255 255 255 255 
0.0408516 0.0460585 0.110496 0.988446 0.148105 0.0322328 255 255 255 255 
-0.0470798 -0.0622947 0.245972 -0.985193 -0.171061 -0.0115611 255 255 255 255 
0.0475095 0.0387775 -0.00730217 0.990248 0.13408 -0.0378428 255 255 255 255 
-0.0312955 0.0329688 -0.119977 -0.964092 0.165993 -0.207301 255 255 255 255 
-0.0488961 -0.00617642 0.222923 -0.997943 0.031092 -0.0560653 255 255 255 255 
0.0192203 0.0569958 -0.135242 0.924977 0.30396 -0.228092 255 255 255 255 
0.0382752 0.050073 0.150684 0.986878 0.158215 0.0322382 255 255 255 255 
-0.0301397 0.0594858 -0.0965702 -0.946228 0.256603 -0.196998 255 255 255 255 
-0.0481273 0.00256788 0.120758 -0.999201 0.0330878 0.0224256 255 255 255 255 
-0.0381183 0.0781702 0.0968169 -0.974662 0.22155 0.0308269 255 255 255 255 
0.0536338 0.0124179 0.260001 0.992169 0.123954 0.0153466 255 255 255 255 
0.00271638 0.110579 -0.202337 -0.987899 0.120726 -0.097371 255 255 255 255 
0.0391945 0.071767 0.0837989 0.976985 0.210876 0.0321173 255 255 255 255 
-0.0869657 0.00416198 0.154983 -0.673358 0.00833882 0.739269 255 255 255 255 
0.0457029 -0.0633197 0.0804083 0.968207 -0.249353 0.0199478 255 255 255 255 
-0.0491422 -0.0247481 0.163988 -0.93107 -0.0252044 -0.363969 255 255 255 255 
-0.0521276 -0.0300686 -0.00997857 -0.998625 -0.0408521 -0.0328454 255 255 255 255 
0.00603553 0.106437 -0.0945672 0.904628 0.383737 -0.185458 255 255 255 255 
0.00396915 0.0375478 -0.369951 0.997982 0.056832 -0.0283366 255 255 255 255 
-0.0438509 -0.00390001 -0.0867387 -0.984037 0.0416886 -0.17301 255 255 255 255 
0.0350182 0.0953328 0.0690733 0.944399 0.328624 0.0108468 255 255 255 255 
-0.0391691 0.0159435 -0.0993127 -0.974899 0.110163 -0.193484 255 255 255 255 
-0.0406684 -0.0882784 0.0594736 -0.953484 -0.300476 0.024118 255 255 255 255 
0.0494668 0.00933576 0.0157364 0.998326 0.0576708 -0.00438897 255 255 255 255 
0.114807 -0.015977 0.127779 0.733237 -0.121283 0.669069 255 255 255 255 
-0.0276361 -0.103285 0.144112 0.166703 -0.982932 0.0778082 255 255 255 255 
0.04972 -0.0498614 -0.0270154 0.99431 -0.089421 -0.0578883 255 255 255 255 
-0.00361996 0.106974 -0.13339 -0.97129 0.204381 -0.121756 255 255 255 255 
-0.0516514 -0.0465357 -0.00212804 -0.994753 -0.0998585 -0.0222353 255 255 255 255 
-0.0474491 -0.0606253 0.271697 -0.930188 -0.356943 0.0856848 255 255 255 255 
-0.0504312 0.00859266 0.303894 0.287786 0.792328 0.537954 255 255 255 255 
0.0417856 -0.109933 0.167597 0.980386 0.166199 0.10593 255 255 255 255 
0.0319318 0.0792563 0.28869 0.86721 0.47998 0.132541 255 255 255 255 
0.0443563 0.0586369 0.0322679 0.983946 0.178409 0.00451614 255 255 255 255 
0.0993605 -0.0186843 0.122527 -0.635136 0.148474 -0.757996 255 255 255 255 
0.0503804 -0.00231522 0.363754 0.961388 0.215541 0.1711 255 255 255 255 
0.010288 -0.0930259 0.21854 7.44091e-006 -0.976913 0.213639 255 255 255 255 
0.00186899 -0.115806 -0.146571 0.977704 -0.186188 -0.097102 255 255 255 255 
0.0324638 -0.044829 -0.127457 0.954558 -0.191812 -0.228093 255 255 255 255 
-0.022567 0.117986 0.110654 -0.917204 0.398398 0.00406189 255 255 255 255 
0.00289666 0.137802 0.0226682 0.812514 0.577541 -0.0791624 255 255 255 255 
0.0476019 0.0216314 -0.0414091 0.989953 0.0993356 -0.100623 255 255 255 255 
0.0337921 0.0760467 0.174822 0.975472 0.216731 0.0385106 255 255 255 255 
0.0485787 -0.0376737 0.147084 0.995384 -0.0953982 0.0104998 255 255 255 255 
0.0363543 -0.0978481 0.198424 -0.265826 -0.544493 0.795527 255 255 255 255 
-0.0493187 0.0130402 0.0115049 -0.996983 0.0770561 -0.0093255 255 255 255 255 
-0.00991063 0.0262747 -0.234841 -0.941608 0.298746 -0.155322 255 255 255 255 
0.0160221 -0.0994428 -0.0636437 0.734477 -0.664644 -0.137088 255 255 255 255 
-0.0517581 -0.0205732 0.238045 -0.998495 -0.0252079 -0.0486975 255 255 255 255 
0.0433528 -0.0284209 0.40943 0.845089 -0.0748714 0.529357 255 255 255 255 
-0.033106 0.0930653 -0.0182619 -0.903368 0.414578 -0.109774 255 255 255 255 
0.046644 -0.0741412 -0.0255525 0.986438 -0.154116 -0.0564637 255 255 255 255 
0.0252433 -0.0567154 0.383512 0.371152 -0.908572 0.191685 255 255 255 255 
-0.054921 -0.00801659 0.317419 -0.99212 -0.0161928 0.124237 255 255 255 255 
-0.0471003 -0.0418274 0.187232 -0.991643 -0.127952 -0.0165289 255 255 255 255 
-0.00204264 -0.099477 0.15208 0.133985 -0.986573 0.0933888 255 255 255 255 
-0.00354037 -0.0953306 0.200486 -0.0162081 -0.978812 0.204118 255 255 255 255 
0.0503136 -0.0096344 0.0302564 0.999902 0.0118448 0.0074123 255 255 255 255 
0.0107248 -0.105379 0.0386895 0.188158 -0.982067 -0.0118463 255 255 255 255 
-0.0297999 0.0980718 0.19241 -0.948745 0.312129 0.0495938 255 255 255 255 
-0.0445291 0.0462532 0.252095 -0.967075 0.250145 -0.0468371 255 255 255 255 
-0.00690711 0.00473958 -0.361655 -0.998456 0.0308164 -0.0462144 255 255 255 255 
0.00309197 0.0226813 -0.3994 0.998496 0.024645 -0.0489656 255 255 255 255 
-0.0404663 0.0648144 0.269089 -0.940602 0.339446 0.00666684 255 255 255 255 
0.0116351 0.0184168 -0.236119 0.97068 0.196486 -0.138467 255 255 255 255 
0.0437447 -0.0671719 0.0960885 0.957498 -0.288018 0.0155839 255 255 255 255 
0.0367007 0.0552222 0.171214 0.984242 0.174428 0.0290272 255 255 255 255 
0.00796823 -0.0464256 -0.285931 0.985388 -0.169735 -0.0141233 255 255 255 255 
-0.0468693 -0.00457 0.180697 -0.999862 0.00774369 -0.0147078 255 255 255 255 
-0.043675 0.0168347 0.183207 -0.996783 0.0799196 -0.00608754 255 255 255 255 
0.042837 0.0138628 0.194632 0.992662 0.120877 -0.00329929 255 255 255 255 
-0.0425897 -0.0324378 -0.0948229 -0.981108 -0.0746986 -0.178457 255 255 255 255 
0.046343 -0.0630857 -0.0540456 0.970995 -0.207428 -0.11892 255 255 255 255 
-0.0487569 -0.00650681 0.131754 -0.999835 -0.00590973 0.01716 255 255 255 255 
0.0319412 0.0811473 0.266297 0.901726 0.426042 0.0733356 255 255 255 255 
0.00736647 -0.0115035 -0.3524 0.998895 0.00260932 -0.0469234 255 255 255 255 
0.0414886 0.0725794 0.0501877 0.975582 0.219157 0.014479 255 255 255 255 
-0.00120172 0.114427 -0.136644 0.965607 0.229055 -0.123031 255 255 255 255 
0.0373077 -0.0285283 -0.115582 0.975451 -0.056747 -0.212781 255 255 255 255 
-0.0510634 -0.0198511 -0.0412615 -0.996082 -0.0142754 -0.0872798 255 255 255 255 
0.0358349 0.0951727 0.0577197 0.942243 0.334926 0.00163018 255 255 255 255 
-0.0519601 -0.0266848 -0.0237539 -0.997951 -0.0329099 -0.0548722 255 255 255 255 
-0.0407339 -0.0328646 -0.101479 -0.979689 -0.0761675 -0.185496 255 255 255 255 
-0.0493873 -0.0516607 0.0614076 -0.989633 -0.142118 0.0206942 255 255 255 255 
-0.00287238 0.127491 0.217494 -0.0448792 0.965037 0.258241 255 255 255 255 
-0.0217881 0.106383 0.244921 -0.91993 0.389218 0.0473038 255 255 255 255 
0.0481064 0.0127057 -0.0419687 0.992213 0.0746627 -0.0996936 255 255 255 255 
0.0498385 -0.0265985 -0.0419056 0.995487 -0.0291102 -0.0903215 255 255 255 255 
-0.037677 -0.0114524 0.434448 -0.710159 0.497929 0.497735 255 255 255 255 
0.0254316 0.1128 0.142576 0.907131 0.420063 0.0256769 255 255 255 255 
0.0355725 0.0623593 0.318321 0.878135 0.440877 0.18576 255 255 255 255 
0.0233859 0.0765247 -0.0945276 0.905666 0.364388 -0.216773 255 255 255 255 
-0.0186528 -0.081349 0.257134 -0.370747 -0.905251 0.207526 255 255 255 255 
-0.0433999 0.0363062 0.114074 -0.991945 0.122761 0.031216 255 255 255 255 
-0.0405344 0.0594513 0.252875 -0.955084 0.295059 -0.0274554 255 255 255 255 
-0.0471362 -0.0494129 -0.0687951 -0.978586 -0.153386 -0.13727 255 255 255 255 
-0.0360165 -0.0544301 -0.105676 -0.963558 -0.19309 -0.185129 255 255 255 255 
-0.00327983 -0.0896962 0.240356 -0.215621 -0.951544 0.219252 255 255 255 255 
-0.0489126 -0.0408358 0.224926 -0.994272 -0.100364 -0.0367609 255 255 255 255 
-0.0509574 -0.0274052 0.332263 -0.975869 -0.197841 0.0924085 255 255 255 255 
0.0410827 0.07677 -0.0140501 0.947756 0.307957 -0.0831897 255 255 255 255 
-0.0465354 0.0424722 0.0263825 -0.99028 0.139056 0.00304362 255 255 255 255 
-0.0453283 0.0117433 0.370128 -0.910538 0.356019 0.21017 255 255 255 255 
-0.0109601 0.062904 -0.160602 -0.950244 0.248081 -0.188394 255 255 255 255 
-0.0342195 -0.0405389 0.351841 0.445877 -0.689173 0.571169 255 255 255 255 
0.00996125 0.0443115 0.405413 0.595145 0.652295 0.469376 255 255 255 255 
0.0501133 -0.0211555 0.0718963 0.999391 -0.0289428 0.0194739 255 255 255 255 
-0.0311352 0.0840698 0.251774 -0.933582 0.35803 0.0154775 255 255 255 255 
0.0376159 0.0076246 0.404063 0.851088 0.43031 0.300804 255 255 255 255 
-0.010736 -0.00729036 -0.312104 -0.999159 0.0279686 -0.0299997 255 255 255 255 
0.0447259 0.0593324 -0.0232514 0.971432 0.223067 -0.0809974 255 255 255 255 
-0.0437141 -0.0584353 0.175008 -0.985758 -0.168133 0.0035303 255 255 255 255 
0.0434 -0.0609162 0.186384 0.986854 -0.159642 0.0251836 255 255 255 255 
0.000318332 -0.138375 -0.14681 0.980765 -0.176584 -0.0831708 255 255 255 255 
-0.0511735 -0.0427912 0.292613 -0.946505 -0.299214 0.120827 255 255 255 255 
0.0196942 0.00833218 -0.198259 0.974805 0.132187 -0.179671 255 255 255 255 
0.0336061 0.070365 0.21051 0.968735 0.246574 0.0274623 255 255 255 255 
-0.0483091 -0.134501 0.105341 0.919723 -0.328746 -0.21456 255 255 255 255 
0.0422038 0.0300969 0.349178 0.922389 0.321676 0.213828 255 255 255 255 
-0.0228248 0.11832 0.133096 -0.914101 0.405046 0.0189057 255 255 255 255 
-0.0159473 0.128169 0.0596863 -0.87943 0.474157 -0.0421722 255 255 255 255 
-0.00968002 0.0246444 -0.242146 -0.954028 0.264705 -0.140577 255 255 255 255 
-0.0457039 0.0296277 0.0563781 -0.993653 0.110285 0.0221379 255 255 255 255 
0.0494551 -0.0093693 0.227916 0.998877 0.0386386 -0.0274116 255 255 255 255 
-0.049906 0.000685621 0.0215245 -0.998626 0.0524062 -0.000791947 255 255 255 255 
0.03713 -0.0845467 0.141931 0.983614 -0.179237 0.0194218 255 255 255 255 
-0.0493805 -0.000814591 0.0509576 -0.998669 0.049628 0.0140739 255 255 255 255 
0.0421234 0.0641382 0.0550574 0.982253 0.186227 0.0223115 255 255 255 255 
-0.0248066 0.00828508 -0.173173 -0.977152 0.0984536 -0.188362 255 255 255 255 
0.0404066 -0.0538978 0.184806 0.549223 -0.256146 0.795452 255 255 255 255 
-0.0567707 -0.0238489 0.276196 -0.992948 -0.0986467 0.0657518 255 255 255 255 
-0.0489692 0.0347028 -0.0129065 -0.989303 0.136804 -0.0506316 255 255 255 255 
0.00528793 -0.0997323 -0.118738 0.937571 -0.317363 -0.142274 255 255 255 255 
0.0306411 -0.041991 -0.136358 0.957872 -0.17514 -0.22761 255 255 255 255 
-0.0361628 0.09467 0.0673524 -0.951612 0.307176 0.0088034 255 255 255 255 
0.0273631 0.0639972 0.346813 0.86302 0.447456 0.234478 255 255 255 255 
0.0504435 -0.0114718 -0.023107 0.998326 0.00998832 -0.0569769 255 255 255 255 
-0.0420433 0.0365066 -0.0750769 -0.968749 0.178165 -0.172575 255 255 255 255 
0.012053 0.129432 0.211744 0.692519 0.701679 0.167521 255 255 255 255 
0.0141186 -0.0986688 -0.0776722 0.797059 -0.583844 -0.15435 255 255 255 255 
0.0195452 -0.0826973 0.262682 0.54164 -0.821158 0.179792 255 255 255 255 
0.00238504 -0.107201 0.00663366 0.304267 -0.951837 -0.0377839 255 255 255 255 
0.0492449 -0.00928785 0.0843466 0.999696 0.0149616 0.0196081 255 255 255 255 
-0.0447411 0.052032 0.26409 -0.95716 0.288821 -0.0206827 255 255 255 255 
0.0496597 -0.0377374 0.0871844 0.993822 -0.109387 0.0187868 255 255 255 255 
-0.0297815 0.0943083 0.203141 -0.951374 0.304599 0.0458931 255 255 255 255 
-0.0541275 -0.0157388 0.3676 -0.971077 0.18391 0.152271 255 255 255 255 
0.0471795 0.0403967 -0.0227977 0.986908 0.146685 -0.0670453 255 255 255 255 
-0.0425869 0.0347354 0.144831 -0.993128 0.113049 0.03028 255 255 255 255 
0.019123 -0.000855792 -0.207485 0.982811 0.0814814 -0.165658 255 255 255 255 
-0.0113774 -0.00428096 -0.289078 -0.9984 0.0392541 -0.0406936 255 255 255 255 
-0.0464857 -0.0739967 0.0394835 -0.976844 -0.213329 0.0163571 255 255 255 255 
0.0333813 0.0878188 -0.0312361 0.907142 0.399553 -0.1321 255 255 255 255 
-0.0224121 0.0861235 -0.0793486 -0.919406 0.353974 -0.171449 255 255 255 255 
0.0337119 -0.0894365 0.120162 0.929333 -0.369191 0.00619925 255 255 255 255 
0.0311436 0.0444764 0.366177 0.870787 0.409378 0.272288 255 255 255 255 
0.053822 0.0230521 0.291679 0.974698 0.198322 0.103114 255 255 255 255 
-0.0328957 0.0685724 0.329255 -0.909441 0.379564 0.169847 255 255 255 255 
-0.0437691 0.0577158 0.273746 -0.946704 0.321928 0.0107147 255 255 255 255 
0.0417323 0.0402638 0.109816 0.989842 0.138845 0.0305848 255 255 255 255 
-0.0522191 0.0197029 0.257643 -0.987581 0.148883 -0.0501745 255 255 255 255 
0.0072501 0.0960024 -0.111079 0.916531 0.350862 -0.19201 255 255 255 255 
-0.0355992 0.022423 0.390256 -0.835811 0.467427 0.287979 255 255 255 255 
-0.0494838 0.020853 -0.00443375 -0.994963 0.0953837 -0.0308167 255 255 255 255 
0.0468557 -0.0531719 0.118898 0.97865 -0.205272 0.0103501 255 255 255 255 
-0.0396934 0.0865174 0.0109044 -0.936262 0.346865 -0.0556642 255 255 255 255 
-0.043814 0.0122051 -0.0810005 -0.980752 0.0955504 -0.170283 255 255 255 255 
-0.0290247 0.106391 0.142679 -0.936453 0.349441 0.0307747 255 255 255 255 
-0.0119363 -0.103789 0.00954878 -0.296868 -0.954789 -0.0157072 255 255 255 255 
0.00778038 0.0147086 -0.319968 0.996246 0.0809168 -0.0307689 255 255 255 255 
0.0497955 -0.0254451 0.1022 0.998576 -0.0507674 0.0163874 255 255 255 255 
-0.0511436 -0.0266416 -0.0434823 -0.995075 -0.0398809 -0.0907454 255 255 255 255 
-0.0313514 -0.0678359 0.301444 -0.488008 -0.852032 0.189444 255 255 255 255 
0.036259 0.066452 0.147966 0.981989 0.185545 0.0356549 255 255 255 255 
0.0506003 -0.0177497 0.0272419 0.999949 -0.00812147 0.00593009 255 255 255 255 
-0.0531338 -0.0171686 0.341915 -0.989707 -0.107426 0.0945493 255 255 255 255 
0.0330742 0.0907883 0.139194 0.963237 0.266377 0.0348917 255 255 255 255 
-0.04677 -0.0528899 0.109083 -0.98267 -0.185067 0.0104468 255 255 255 255 
0.0384467 -0.0988692 0.0908692 -0.91004 -0.371856 -0.183169 255 255 255 255 
0.0409303 0.0525378 0.0930289 0.986849 0.158127 0.0335405 255 255 255 255 
0.0351333 0.0747858 0.150005 0.977814 0.206204 0.0368784 255 255 255 255 
-0.029133 -0.0120843 -0.154397 -0.981488 -0.0109367 -0.191211 255 255 255 255 
0.056422 -0.0142264 0.269676 0.999025 -0.00996837 0.042997 255 255 255 255 
-0.0348182 -0.0596981 0.344102 -0.49576 -0.853813 0.158827 255 255 255 255 
0.0341055 0.0696736 0.18993 0.975869 0.215908 0.0326201 255 255 255 255 
-0.045174 -0.0826111 -0.0160564 -0.971666 -0.232463 -0.0427324 255 255 255 255 
-0.0418515 0.0428755 0.334779 -0.931366 0.318991 0.175508 255 255 255 255 
-0.018329 0.127413 0.180777 -0.874347 0.482061 0.0559768 255 255 255 255 
-0.0262165 0.032479 -0.141793 -0.962706 0.174456 -0.206792 255 255 255 255 
-0.0447069 0.0360681 0.332338 -0.941231 0.293083 0.167889 255 255 255 255 
0.0148653 0.0941943 -0.0857376 0.890732 0.408018 -0.200295 255 255 255 255 
-0.0259662 -0.0960753 -0.0435351 -0.600892 -0.796156 -0.0711638 255 255 255 255 
0.00583847 -0.0799443 -0.153782 0.917796 -0.350994 -0.185617 255 255 255 255 
0.0164021 -0.0851768 0.256624 0.472086 -0.861083 0.188867 255 255 255 255 
-0.038941 0.0363108 0.355996 -0.911444 0.353347 0.210751 255 255 255 255 
-0.00884473 0.107044 0.274135 -0.160652 0.916803 0.365601 255 255 255 255 
-0.0433145 -0.0728747 -0.0590963 -0.877575 -0.462684 -0.125642 255 255 255 255 
0.0689022 0.00430669 0.154939 -0.658172 0.187584 -0.729124 255 255 255 255 
-0.0429666 0.0345502 0.137655 -0.993054 0.113412 0.0313355 255 255 255 255 
0.0210458 -0.0960944 0.181536 0.0639737 -0.98481 0.161419 255 255 255 255 
-0.0208999 0.0483221 -0.143269 -0.9533 0.222376 -0.204371 255 255 255 255 
-0.0432476 0.0246619 0.211089 -0.991144 0.126527 -0.0403126 255 255 255 255 
-0.0338079 0.065126 -0.0764726 -0.939647 0.289901 -0.181717 255 255 255 255 
-0.0476071 0.0031469 0.220752 -0.996268 0.0650641 -0.0567163 255 255 255 255 
-0.0268194 -0.102561 0.151124 0.15673 -0.983568 0.0896088 255 255 255 255 
-0.0334538 0.0739484 0.314766 -0.907636 0.395572 0.140425 255 255 255 255 
0.0235221 0.0783982 0.327118 0.836196 0.505778 0.212051 255 255 255 255 
0.0562859 -0.0238289 0.279405 0.99497 -0.0707973 0.0708635 255 255 255 255 
-0.0374814 0.0857572 -0.0162189 -0.921608 0.374757 -0.10098 255 255 255 255 
0.0458826 0.00645961 0.216456 0.994609 0.100683 -0.0248284 255 255 255 255 
-0.029712 -0.0273643 0.362948 0.471367 -0.672588 0.570472 255 255 255 255 
-0.000150282 0.0458862 -0.250519 -0.927494 0.34279 -0.149161 255 255 255 255 
0.0165873 -0.100991 -0.0384776 0.604167 -0.790466 -0.100731 255 255 255 255 
-0.0474407 -0.0736799 0.0101272 -0.982216 -0.187586 -0.00790916 255 255 255 255 
0.0460376 -0.0474199 -0.07062 0.98077 -0.124833 -0.150025 255 255 255 255 
-0.029232 -0.0982961 0.0534451 -0.381259 -0.924422 0.00924655 255 255 255 255 
-0.0248291 -0.065955 0.334667 -0.232877 -0.955191 0.182699 255 255 255 255 
0.0227957 -0.0803597 0.264589 0.547938 -0.817092 0.179235 255 255 255 255 
-0.0483714 -0.12509 0.111027 -0.97064 0.239263 -0.0247313 255 255 255 255 
-0.0482974 -0.0209899 -0.068174 -0.990198 -0.0254755 -0.137325 255 255 255 255 
0.0484495 -0.0352325 0.156856 0.997107 -0.0752717 0.0105888 255 255 255 255 
-0.0362375 -0.094894 0.0221362 -0.348622 -0.937236 -0.00711043 255 255 255 255 
-0.0362498 0.0732651 0.159562 -0.977531 0.20799 0.0342518 255 255 255 255 
0.0569301 -0.0104938 0.283404 0.996922 0.00298401 0.0783409 255 255 255 255 
0.031247 0.0921765 0.174141 0.962609 0.267029 0.0456043 255 255 255 255 
0.0480435 0.00147902 0.0916745 0.998491 0.0509417 0.0205061 255 255 255 255 
-0.00467557 -0.0706606 -0.27098 -0.984809 -0.165752 -0.0517403 255 255 255 255 
0.0322406 -0.0953291 -0.00170389 0.391074 -0.918982 -0.0503409 255 255 255 255 
0.0463835 -0.0718054 0.0328803 0.986435 -0.163628 0.0131185 255 255 255 255 
-0.0349141 0.0740713 0.305698 -0.910168 0.397145 0.117767 255 255 255 255 
-0.0515215 -0.02022 0.0126162 -0.999966 -0.00305502 -0.00770675 255 255 255 255 
0.0449784 -0.0751931 0.0417323 0.979589 -0.20023 0.0176898 255 255 255 255 
-0.019588 -0.0834897 0.24522 -0.336714 -0.917119 0.213345 255 255 255 255 
-0.00207711 0.108117 -0.153675 0.970843 0.205478 -0.123458 255 255 255 255 
-0.0479784 -0.0327722 0.186155 -0.995133 -0.0962435 -0.0211614 255 255 255 255 
-0.0399966 0.0678786 0.088803 -0.981439 0.189058 0.0321766 255 255 255 255 
0.0526955 0.0218871 0.262093 0.985505 0.167887 0.0243909 255 255 255 255 
0.0429276 0.0706697 -0.0120748 0.961324 0.266197 -0.0706781 255 255 255 255 
-0.0453194 0.0207614 -0.0693104 -0.980669 0.119483 -0.154956 255 255 255 255 
0.00736183 -0.106769 -0.0369694 0.563407 -0.820925 -0.0930301 255 255 255 255 
0.0385252 -0.0922941 0.168823 0.522905 -0.318486 0.790656 255 255 255 255 
0.0426415 0.0241539 -0.0763677 0.977643 0.125351 -0.168825 255 255 255 255 
-0.0342389 0.0779092 0.184478 -0.971916 0.232966 0.0332644 255 255 255 255 
-0.0457945 -0.0588679 0.284298 -0.863302 -0.486045 0.135905 255 255 255 255 
0.0485284 -0.0584291 -0.0368562 0.987863 -0.133952 -0.078642 255 255 255 255 
0.0434882 -0.104349 0.0768899 -0.910143 -0.371371 -0.183639 255 255 255 255 
-0.0428946 -0.0256816 -0.0944238 -0.982889 -0.0448414 -0.178657 255 255 255 255 
0.0264221 -0.0973405 -0.00702241 0.414024 -0.908533 -0.0561516 255 255 255 255 
-0.047593 0.00797763 0.10913 -0.998024 0.0582458 0.0235864 255 255 255 255 
0.0501797 0.00152137 -0.00540175 0.99875 0.0399065 -0.0301076 255 255 255 255 
-0.0342589 0.0912721 0.123234 -0.961077 0.274677 0.0297268 255 255 255 255 
-0.0333816 -0.0713442 0.272811 -0.467735 -0.861502 0.197583 255 255 255 255 
0.00551543 -0.0921647 0.229355 0.0308521 -0.975393 0.218303 255 255 255 255 
0.0152895 -0.090269 0.230569 0.216098 -0.953696 0.209202 255 255 255 255 
-0.0293736 0.0884502 0.281318 -0.91133 0.408105 0.0541161 255 255 255 255 
0.0483399 0.00422894 0.229936 0.995434 0.0908773 -0.0291932 255 255 255 255 
-0.0459643 0.0576334 -0.0262789 -0.965971 0.240431 -0.0953569 255 255 255 255 
0.0235266 -0.0719432 -0.114148 0.900099 -0.379696 -0.213664 255 255 255 255 
0.0493185 -0.00608112 0.0689147 0.999555 0.0221866 0.0199566 255 255 255 255 
0.0384847 0.0510656 0.144176 0.986702 0.159141 0.0330555 255 255 255 255 
-0.0319988 0.0981043 0.138494 -0.951154 0.307102 0.0315323 255 255 255 255 
0.0198769 0.107336 -0.0295296 0.873322 0.467396 -0.137296 255 255 255 255 
0.02146 -0.0242016 -0.191451 0.983741 -0.0332925 -0.17648 255 255 255 255 
-0.036151 -0.0912959 0.0980432 0.915351 -0.322233 -0.241451 255 255 255 255 
-0.0476147 0.0446046 -0.0322706 -0.977295 0.188654 -0.0964578 255 255 255 255 
0.0320186 -0.0653605 0.303833 0.730903 -0.666384 0.147356 255 255 255 255 
0.0437133 -0.0579768 0.285262 0.772322 -0.618829 0.143421 255 255 255 255 
0.0275291 0.0157432 0.416908 0.794089 0.494523 0.353369 255 255 255 255 
0.0499715 -0.043262 0.0428714 0.995613 -0.0922728 0.0154919 255 255 255 255 
0.0371108 -0.0899261 0.0665711 0.9403 -0.339743 0.0202677 255 255 255 255 
-0.0339377 0.0740951 0.230865 -0.956528 0.291636 0.00117776 255 255 255 255 
0.0490155 0.0193044 -0.014289 0.995405 0.0839378 -0.0460878 255 255 255 255 
-0.0291035 -0.0687708 0.310204 -0.278946 -0.940525 0.19391 255 255 255 255 
-0.0445512 0.0690952 -0.00531547 -0.960437 0.271042 -0.0640078 255 255 255 255 
0.0505261 -0.0106354 0.0184053 0.999943 0.010612 -0.00138696 255 255 255 255 
-0.0422471 -0.0784178 -0.0510452 -0.857029 -0.50298 -0.111861 255 255 255 255 
0.04479 -0.0854408 0.0178966 0.988195 -0.15317 0.00314243 255 255 255 255 
0.0507139 -0.0145341 0.00858931 0.999941 0.00305834 -0.0104199 255 255 255 255 
-0.039754 0.0456294 0.166401 -0.989691 0.141373 0.0229218 255 255 255 255 
-0.0382708 -0.0341924 -0.109914 -0.977939 -0.0843655 -0.191095 255 255 255 255 
-0.0438422 -0.045697 -0.0859936 -0.976192 -0.14055 -0.165212 255 255 255 255 
-0.0447981 0.0276638 0.107735 -0.993873 0.106711 0.0287884 255 255 255 255 
-0.000454064 0.15592 0.139271 0.0349122 0.968621 0.246076 255 255 255 255 
-0.052667 -0.0320258 0.377863 -0.991705 -0.0848687 0.0965275 255 255 255 255 
0.0388173 -0.0483548 0.382917 0.56673 -0.807315 0.164498 255 255 255 255 
0.0341708 -0.0050643 0.394255 -0.145952 -0.924624 0.351807 255 255 255 255 
-0.0467141 0.000760399 0.161385 -0.999808 0.0179289 0.00792808 255 255 255 255 
-0.0206374 -0.0528248 -0.156947 -0.957734 -0.229591 -0.173302 255 255 255 255 
0.0357057 -0.097856 0.0520935 0.939389 -0.342254 0.0202556 255 255 255 255 
-0.0156359 0.128615 0.0816925 -0.895679 0.44372 -0.0295382 255 255 255 255 
0.0211458 0.118062 0.0413272 0.847189 0.528558 -0.0538269 255 255 255 255 
0.00399371 -0.0995781 0.148336 0.119565 -0.988804 0.0892825 255 255 255 255 
-0.0493243 0.0291792 -0.0160591 -0.991089 0.12195 -0.0535761 255 255 255 255 
-0.03299 -0.0926896 -0.027931 -0.559355 -0.82667 -0.0611501 255 255 255 255 
0.0305431 -0.0823994 -0.0740107 0.815781 -0.55555 -0.160829 255 255 255 255 
0.00103557 0.0422398 -0.21611 0.740102 0.622183 -0.255222 255 255 255 255 
0.00741869 -0.107238 0.0705764 0.295142 -0.95543 0.0067411 255 255 255 255 
0.0392883 -0.08231 -0.0454923 0.65185 -0.750083 -0.111654 255 255 255 255 
-0.00625466 0.0776153 0.340452 -0.0550218 0.89652 0.439573 255 255 255 255 
-0.034204 -0.0928811 0.104104 -0.944782 -0.327552 0.00978174 255 255 255 255 
-0.0511234 -0.0117691 -0.0329886 -0.997273 0.0122148 -0.0727794 255 255 255 255 
-0.00309984 0.0568268 0.386067 -0.161636 0.857278 0.488823 255 255 255 255 
0.0235797 -0.0107575 -0.181814 0.981603 0.0401853 -0.186655 255 255 255 255 
0.0430109 -0.0586198 -0.0775675 0.965609 -0.199392 -0.166859 255 255 255 255 
0.0480224 -0.0135804 -0.0566942 0.992365 0.00851999 -0.123041 255 255 255 255 
0.0495496 -0.0406702 0.0826622 0.992244 -0.122768 0.0194946 255 255 255 255 
0.0237145 -0.101904 0.0151559 0.231817 -0.97237 -0.0275401 255 255 255 255 
0.0411252 -0.0889618 0.0577933 -0.910441 -0.371167 -0.182573 255 255 255 255 
-0.0440823 0.0368319 0.0753029 -0.99187 0.124074 0.0282574 255 255 255 255 
0.0564054 -0.0200173 0.27037 0.997798 -0.0471219 0.0466817 255 255 255 255 
0.0386282 0.0728542 0.0907683 0.976214 0.2143 0.0328737 255 255 255 255 
-0.0507111 -0.0157551 0.231392 -0.998555 -0.00585199 -0.053422 255 255 255 255 
0.0411348 0.0619155 0.072345 0.983409 0.178745 0.0309329 255 255 255 255 
0.047375 0.0392532 0.00483855 0.991071 0.131728 -0.020621 255 255 255 255 
-0.0168953 0.125766 0.0330921 -0.864604 0.498591 -0.0621891 255 255 255 255 
-0.0495567 -0.0108821 0.225032 -0.998386 0.0133825 -0.0551874 255 255 255 255 
-0.00832627 0.0380557 -0.218841 -0.932617 0.315922 -0.174412 255 255 255 255 
0.0393293 0.0358208 0.175866 0.98837 0.15077 0.0198054 255 255 255 255 
-0.0308551 -0.0690182 -0.103119 -0.928301 -0.325346 -0.180017 255 255 255 255 
-0.0476012 -0.067687 0.0452871 -0.980588 -0.195222 0.0183016 255 255 255 255 
-0.00827068 0.110812 0.265331 -0.141662 0.925248 0.35192 255 255 255 255 
0.0279945 0.0613964 -0.103323 0.925633 0.306247 -0.222299 255 255 255 255 
-0.0412612 0.0536892 0.101738 -0.986996 0.157292 0.0331319 255 255 255 255 
-0.0403141 -0.0725147 0.160077 -0.985545 -0.168634 0.0162207 255 255 255 255 
0.0477823 -0.0286248 0.199316 0.999372 -0.0349602 -0.00574425 255 255 255 255 
0.0304942 -0.0285521 -0.144529 0.973509 -0.0689267 -0.218014 255 255 255 255 
-0.0473836 0.0305596 -0.0499595 -0.981814 0.14493 -0.122623 255 255 255 255 
-0.0378949 0.0671383 0.144267 -0.981399 0.188959 0.0339092 255 255 255 255 
-0.0294513 -0.0962584 -0.00918711 -0.416047 -0.908753 -0.0327649 255 255 255 255 
-0.0203179 -0.0707056 0.3157 -0.229852 -0.95394 0.192784 255 255 255 255 
0.00868956 -0.106284 -0.0597942 0.703054 -0.699544 -0.127879 255 255 255 255 
0.047306 -0.041681 -0.065357 0.985581 -0.0967219 -0.138836 255 255 255 255 
-0.0154954 0.128603 0.0907324 -0.902051 0.430966 -0.0239009 255 255 255 255 
0.0442452 -0.0587353 0.160889 0.987989 -0.153718 0.0157896 255 255 255 255 
-0.0254802 0.114389 0.14609 -0.916634 0.398594 0.0300647 255 255 255 255 
0.048317 -0.0648522 0.0133733 0.993755 -0.111571 -0.00193558 255 255 255 255 
0.0474169 0.00577938 0.365933 0.937818 0.282915 0.201137 255 255 255 255 
0.0160201 0.0396616 0.404343 0.740994 0.552619 0.381497 255 255 255 255 
-0.0495794 -0.0328819 0.224318 -0.996556 -0.0715153 -0.0419799 255 255 255 255 
-0.046002 -0.0717813 -0.0462864 -0.958375 -0.268228 -0.0978281 255 255 255 255 
0.0141588 -0.0497577 -0.198125 0.967512 -0.189345 -0.167535 255 255 255 255 
-0.00710805 0.142295 0.106943 -0.910924 0.41167 -0.0272987 255 255 255 255 
