ply
format ascii 1.0
comment VCGLIB generated
element vertex 629
property float x
property float y
property float z
property float nx
property float ny
property float nz
property uchar red
property uchar green
property uchar blue
property uchar alpha
element face 0
property list uchar int vertex_indices
end_header
-0.0271922 -0.062252 0.100645 -0.377137 -0.922387 -0.0834858 255 255 255 255 
0.0742533 0.099153 0.105372 0.844028 0.510232 -0.165166 255 255 255 255 
0.028151 0.181673 0.376519 0.917525 0.0340581 0.396218 255 255 255 255 
0.0276378 0.201835 0.352889 -0.654348 -0.483544 -0.581389 255 255 255 255 
0.0452682 -0.124239 0.200615 -0.710059 -0.171583 0.682917 255 255 255 255 
0.0389177 -0.24473 0.194727 -0.355552 -0.421141 -0.8344 255 255 255 255 
-0.0841777 0.03572 -0.000935822 -0.997097 -0.0419988 -0.063507 255 255 255 255 
0.00212211 0.258841 0.287763 0.0248765 0.950462 -0.309843 255 255 255 255 
-0.047852 0.216898 0.301688 -0.947132 0.317449 0.0465452 255 255 255 255 
0.0284682 0.0469342 -0.168023 0.0983108 0.260764 -0.960384 255 255 255 255 
0.0721672 -0.0153584 0.138511 0.854485 -0.390295 -0.34282 255 255 255 255 
-0.0396376 0.220344 0.337852 -0.870708 0.329186 0.365381 255 255 255 255 
-0.0144581 0.0145981 -0.217227 -0.875185 0.32032 -0.362554 255 255 255 255 
-0.0614407 -0.258723 0.211529 0.151657 -0.986028 0.0689109 255 255 255 255 
0.0297741 -0.0390194 0.242843 0.277365 -0.601861 0.748888 255 255 255 255 
0.052482 -0.172861 0.200334 0.145469 0.157014 0.976824 255 255 255 255 
0.0954138 0.02401 0.187194 0.989332 -0.0865032 0.117218 255 255 255 255 
0.0670009 0.075315 -0.0954839 0.857845 0.485278 -0.169134 255 255 255 255 
0.0439548 -0.105393 0.202481 -0.71928 -0.232387 0.6547 255 255 255 255 
0.027781 0.0394716 -0.17076 0.0269221 0.251236 -0.967551 255 255 255 255 
-0.0384471 -0.252184 -0.146119 0.813655 -0.27004 -0.514825 255 255 255 255 
0.0449808 -0.0544217 -0.0836645 -0.827093 -0.486627 0.281268 255 255 255 255 
0.0648483 -0.0272748 -0.0489196 0.656562 -0.644439 0.391951 255 255 255 255 
-0.0570253 0.104428 0.27464 -0.903349 -0.195156 0.381936 255 255 255 255 
-0.0432227 -0.0542944 -0.103058 0.809694 -0.508877 0.292301 255 255 255 255 
-0.0464131 -0.23965 0.193263 0.148842 -0.407696 -0.900905 255 255 255 255 
0.0153704 0.0005551 0.27491 0.42555 -0.326603 0.843942 255 255 255 255 
-0.0891276 -0.0181645 -0.0802462 -0.993867 -0.0406303 0.102851 255 255 255 255 
0.0502876 0.121415 0.31025 0.69192 -0.429674 0.580196 255 255 255 255 
0.0482243 0.160755 0.221674 0.755639 0.571943 -0.319205 255 255 255 255 
0.0368717 -0.0491429 0.020837 0.424733 -0.891913 -0.155222 255 255 255 255 
0.0334335 0.138334 0.349176 0.778511 -0.299765 0.551418 255 255 255 255 
-0.0644561 0.0477008 0.244982 -0.799087 -0.0876122 0.594798 255 255 255 255 
0.0224489 -0.0325869 0.250725 0.267218 -0.595812 0.757365 255 255 255 255 
-0.0461796 0.125718 0.0543878 -0.514007 0.854639 -0.0734132 255 255 255 255 
-0.00532335 0.0174154 0.283021 -0.25825 -0.312766 0.914048 255 255 255 255 
0.0609059 0.121704 0.285634 0.969235 -0.0840182 0.231354 255 255 255 255 
0.041919 -0.112983 0.173188 -0.949151 -0.291825 -0.11811 255 255 255 255 
-0.059998 0.102533 0.264738 -0.91704 -0.145397 0.371345 255 255 255 255 
0.0821761 0.0411705 -0.00164981 0.982206 0.0945436 -0.162277 255 255 255 255 
0.0696614 0.0952291 0.0214461 0.852098 0.512343 -0.106929 255 255 255 255 
-0.041104 0.0871942 -0.135673 -0.391999 0.681138 -0.618375 255 255 255 255 
0.0583863 0.126691 0.117707 0.704498 0.687398 -0.17654 255 255 255 255 
-0.0763705 0.0590146 -0.113099 -0.905861 0.370338 -0.205584 255 255 255 255 
-0.0869048 0.00877974 -0.125808 -0.970903 0.135655 -0.197346 255 255 255 255 
-0.0265632 -0.239368 0.208852 0.79951 0.571402 -0.185159 255 255 255 255 
0.0482688 0.15813 0.341839 0.884725 -0.126226 0.448696 255 255 255 255 
0.0343696 -0.0525168 -0.112782 -0.909344 -0.407424 0.084261 255 255 255 255 
-0.0428079 0.145245 0.187262 -0.622988 0.750054 -0.222048 255 255 255 255 
-0.0800433 -0.0336811 -0.150882 -0.872536 -0.00506436 -0.488523 255 255 255 255 
-0.0553475 -0.138662 -0.146332 0.228807 -0.472687 0.851008 255 255 255 255 
0.08215 -0.0583446 -0.0946983 0.947412 -0.238557 0.213311 255 255 255 255 
0.0561497 0.188748 0.294074 0.979561 0.172196 -0.103968 255 255 255 255 
0.0604901 0.0639706 -0.136478 0.785058 0.479059 -0.392666 255 255 255 255 
0.00754351 0.0545463 -0.17598 0.60079 0.467357 -0.64856 255 255 255 255 
-0.0523649 -0.178037 0.206217 0.464007 0.1452 0.87385 255 255 255 255 
0.0534114 -0.259776 0.22612 0.0422136 -0.978937 0.19975 255 255 255 255 
-0.0370997 -0.115253 0.174406 0.764616 -0.183593 -0.617783 255 255 255 255 
-0.0656724 0.0278145 -0.170971 -0.75556 0.282734 -0.590923 255 255 255 255 
0.0708062 -0.0956951 -0.149358 0.948746 -0.0867013 -0.303915 255 255 255 255 
0.0412246 -0.225824 0.187352 -0.856495 0.467863 -0.217993 255 255 255 255 
0.0784407 -0.258547 -0.146065 0.381765 -0.909816 -0.162759 255 255 255 255 
-0.0326037 0.0146557 0.26839 -0.562487 -0.240758 0.790977 255 255 255 255 
-0.089903 -0.0168886 0.171893 -0.951023 -0.251119 -0.180262 255 255 255 255 
-0.0378088 -0.0407312 -0.101859 0.764687 -0.60832 0.212603 255 255 255 255 
0.0545426 0.177331 0.31861 0.989062 0.122687 0.0818776 255 255 255 255 
0.049349 -0.0761391 -0.101235 -0.843993 -0.391759 0.366333 255 255 255 255 
0.0511666 0.183577 0.267378 0.925061 0.323471 -0.199069 255 255 255 255 
0.0652519 -0.197306 0.197066 0.998264 -0.0164997 -0.0565462 255 255 255 255 
-0.04674 -0.0412693 0.00147888 -0.438996 -0.89391 -0.0905934 255 255 255 255 
-0.0798726 -0.00439717 0.114551 -0.915534 -0.393636 -0.0827593 255 255 255 255 
0.082185 -0.000637814 0.146171 0.916645 -0.284655 -0.280595 255 255 255 255 
-0.0741966 -0.0117453 -0.0226992 -0.918639 -0.382081 0.10058 255 255 255 255 
0.0548023 -0.231436 -0.140707 0.447533 0.742235 0.4988 255 255 255 255 
0.0384738 -0.200636 0.174832 -0.921069 -0.104985 -0.374979 255 255 255 255 
-0.0264691 0.0190924 0.273508 -0.50214 -0.262208 0.824077 255 255 255 255 
-0.0830958 -0.251997 -0.156619 -0.46672 -0.233602 -0.852996 255 255 255 255 
-0.00813895 0.134823 0.346143 -0.307159 -0.756943 0.576793 255 255 255 255 
-0.0148021 0.13473 0.364934 -0.176344 -0.982961 0.0518666 255 255 255 255 
-0.0666799 0.0208096 -0.171977 -0.672512 0.297509 -0.677654 255 255 255 255 
-0.0738551 0.097024 0.0741938 -0.827448 0.554273 -0.0900634 255 255 255 255 
0.0883902 0.00417451 0.0639098 0.953243 -0.300966 -0.0273534 255 255 255 255 
-0.0821689 0.0906259 0.120488 -0.896238 0.404933 -0.181069 255 255 255 255 
0.0856506 -0.0392711 -0.100703 0.979549 -0.148808 0.135426 255 255 255 255 
-0.0775879 -0.056387 -0.150922 -0.877034 -0.0152492 -0.480186 255 255 255 255 
0.0585503 0.0482812 0.25373 0.793007 -0.106192 0.599886 255 255 255 255 
-0.0085968 -0.0278749 -0.0639493 0.146351 -0.975022 -0.167073 255 255 255 255 
-0.0438736 0.19418 0.265881 -0.891145 0.389932 -0.231977 255 255 255 255 
0.0184944 0.078082 -0.152563 0.441761 0.592679 -0.673483 255 255 255 255 
-0.0694852 0.0989484 0.00214614 -0.806495 0.586257 -0.0766056 255 255 255 255 
0.0552384 0.145324 0.214012 0.791108 0.570518 -0.220584 255 255 255 255 
0.0523906 -0.0437785 0.113831 0.719555 -0.681445 -0.133689 255 255 255 255 
-0.0205793 0.182368 0.383401 -0.861449 0.0945557 0.498963 255 255 255 255 
0.0820615 0.0541158 0.00574266 0.971651 0.175584 -0.158316 255 255 255 255 
0.0316343 -0.0847894 0.187869 -0.940991 -0.32196 -0.104299 255 255 255 255 
0.0723382 -0.0906289 -0.146995 0.951999 -0.0924419 -0.29181 255 255 255 255 
0.0641744 -0.187286 0.177638 0.994522 -0.0300872 -0.100099 255 255 255 255 
-0.0200403 0.143958 0.126559 -0.180304 0.968051 -0.174263 255 255 255 255 
-0.0590282 0.131052 0.287483 -0.987519 0.0131269 0.15695 255 255 255 255 
-0.0881512 0.000939504 0.0618047 -0.951318 -0.307319 -0.0234419 255 255 255 255 
-0.028468 0.131937 0.00415385 -0.313603 0.948132 -0.0519555 255 255 255 255 
-0.0401674 0.190578 0.246051 -0.808262 0.483416 -0.336187 255 255 255 255 
0.00490696 0.132819 -0.054706 0.0569587 0.987456 -0.147262 255 255 255 255 
-0.0128711 0.0751062 -0.160856 -0.396021 0.627876 -0.670029 255 255 255 255 
-0.0344014 -0.243626 0.197073 0.159349 -0.406409 -0.899689 255 255 255 255 
-0.0378313 -0.05687 0.0966415 -0.528136 -0.846065 -0.0724298 255 255 255 255 
-0.0104937 0.258495 0.287616 -0.0344565 0.964252 -0.262737 255 255 255 255 
-0.0117369 -0.0173465 -0.210071 -0.325431 -0.756239 0.567624 255 255 255 255 
-0.0437237 0.194833 0.347698 -0.935302 0.158605 0.316315 255 255 255 255 
0.0552273 -0.0947948 -0.167466 -0.332012 0.204657 -0.920806 255 255 255 255 
0.0663238 0.110373 0.235875 0.966044 0.154323 0.207226 255 255 255 255 
-0.0453768 -0.223464 0.186792 0.0360356 -0.437654 -0.898421 255 255 255 255 
-0.0326819 -0.23283 0.203707 0.797196 0.572061 -0.192935 255 255 255 255 
0.0942675 0.00683091 0.178198 0.989705 -0.142459 -0.0137909 255 255 255 255 
0.0414686 -0.167054 0.171099 -0.493105 -0.156058 -0.855858 255 255 255 255 
-0.0112518 0.172034 0.189319 -0.393191 0.764522 -0.51079 255 255 255 255 
0.0384525 -0.0907975 -0.153542 -0.985139 -0.170283 0.0224547 255 255 255 255 
0.0722796 -0.0366132 0.150632 0.839339 -0.33663 -0.426837 255 255 255 255 
0.0885535 0.0555761 0.0450385 0.969981 0.2194 -0.104882 255 255 255 255 
0.0627945 -0.044227 -0.0631045 -0.166664 -0.789379 0.59085 255 255 255 255 
0.0263891 0.00783629 -0.171259 -0.473936 -0.25372 -0.843214 255 255 255 255 
0.041093 -0.0815501 0.195608 -0.477292 -0.770833 0.421912 255 255 255 255 
-0.046301 0.209356 0.282055 -0.886905 0.391847 -0.244652 255 255 255 255 
-0.0363481 -0.0623082 0.137584 -0.318088 -0.938062 -0.137328 255 255 255 255 
0.00180003 -0.0091293 -0.248385 0.729209 0.542748 -0.416747 255 255 255 255 
-0.0556681 -0.0601443 0.217712 -0.547428 -0.381174 0.745003 255 255 255 255 
-0.0394416 0.00524108 -0.17435 0.357252 -0.144497 -0.922763 255 255 255 255 
-0.0583204 0.141872 0.287757 -0.990831 0.0870703 0.103307 255 255 255 255 
0.0488599 -0.0481225 0.112365 0.666027 -0.739031 -0.101196 255 255 255 255 
-0.0182758 0.0300496 -0.195729 -0.93094 0.135278 -0.339192 255 255 255 255 
-0.0192772 -0.0258237 -0.0722375 0.288115 -0.947679 -0.137455 255 255 255 255 
0.0463277 -0.0823902 -0.161776 -0.227267 0.128211 -0.965356 255 255 255 255 
0.0697191 -0.0243971 0.102669 0.836786 -0.544571 -0.0568512 255 255 255 255 
0.096304 0.060054 0.186216 0.963906 0.0957799 0.24842 255 255 255 255 
0.0102312 0.0820743 -0.15386 0.435004 0.605007 -0.666887 255 255 255 255 
0.0567078 0.166187 0.263932 0.961035 0.258405 -0.0981788 255 255 255 255 
0.0184666 -0.0550783 0.019234 0.329177 -0.928112 -0.173927 255 255 255 255 
-0.0928965 -0.0108709 0.181116 -0.976196 -0.214278 -0.0335632 255 255 255 255 
0.0458752 0.139821 0.157769 0.494276 0.84691 -0.196049 255 255 255 255 
-0.076634 -0.0169769 -0.0420641 -0.886831 -0.361128 0.288301 255 255 255 255 
0.0385724 0.150971 0.353739 0.866894 -0.152564 0.474572 255 255 255 255 
0.029711 0.136133 0.0919357 0.273604 0.953462 -0.126693 255 255 255 255 
0.086099 0.0680724 0.0611426 0.945784 0.314428 -0.0814105 255 255 255 255 
-0.0500266 0.124705 0.0727993 -0.576171 0.811965 -0.0934893 255 255 255 255 
0.0593477 0.133479 0.193511 0.721995 0.676837 -0.143579 255 255 255 255 
0.0820896 -0.0666352 -0.121343 0.985112 -0.118763 -0.124299 255 255 255 255 
-0.0516874 -0.0398927 0.00645352 -0.572991 -0.815786 -0.0785717 255 255 255 255 
0.0834864 -0.00720264 -0.0789416 0.995252 0.0231084 0.0945509 255 255 255 255 
-0.0750366 0.0115944 -0.163435 -0.869854 0.160038 -0.466629 255 255 255 255 
0.0755851 0.0353797 -0.123546 0.936949 0.285366 -0.201724 255 255 255 255 
-0.089583 0.0535011 0.0287465 -0.992469 0.0909415 -0.0820671 255 255 255 255 
0.00986853 0.133933 -0.0309046 0.0121951 0.995945 -0.0891317 255 255 255 255 
0.0835398 -0.0400298 -0.0866258 0.957842 -0.186546 0.218495 255 255 255 255 
-0.0833802 0.00349475 0.117379 -0.932578 -0.352424 -0.0780715 255 255 255 255 
0.00194746 0.132358 -0.0620218 0.0288661 0.985404 -0.167764 255 255 255 255 
-0.0216107 -0.0657001 0.128191 -0.200457 -0.973769 -0.107661 255 255 255 255 
0.0413793 -0.0677037 0.21649 -0.334797 -0.825732 0.453957 255 255 255 255 
-0.0405778 -0.0448208 -0.0963968 0.759153 -0.59084 0.273121 255 255 255 255 
-0.0316641 0.131749 0.053444 -0.324614 0.943077 -0.0723328 255 255 255 255 
-0.0744719 -0.0579026 0.202581 -0.741554 -0.311424 0.594233 255 255 255 255 
-0.0811249 -0.00598386 0.0132484 -0.909158 -0.411408 -0.0646171 255 255 255 255 
0.0376572 -0.0557706 -0.105268 -0.881862 -0.433766 0.184843 255 255 255 255 
-0.0110656 -0.000848224 -0.189993 -0.561682 -0.679353 0.47222 255 255 255 255 
-0.0539941 -0.0356175 -0.0493698 -0.0316854 -0.999135 -0.026917 255 255 255 255 
0.0308868 -0.121362 0.176997 -0.653882 -0.161558 -0.739147 255 255 255 255 
0.0328855 0.244117 0.276478 0.638498 0.629465 -0.442826 255 255 255 255 
0.0586402 0.146963 0.306905 0.986365 0.000387856 0.164572 255 255 255 255 
0.0470453 -0.0483984 0.0471015 0.546947 -0.830444 -0.105886 255 255 255 255 
0.0463983 -0.0416842 0.00534822 0.477721 -0.867931 -0.135935 255 255 255 255 
0.0445139 -0.0676972 -0.102572 -0.859101 -0.410693 0.305412 255 255 255 255 
0.0747042 0.0909262 0.0488387 0.87588 0.474743 -0.0863305 255 255 255 255 
-0.0823833 0.0845878 0.0903665 -0.90224 0.415391 -0.115816 255 255 255 255 
-0.0393291 0.185009 0.235061 -0.72674 0.552558 -0.408079 255 255 255 255 
0.0613119 0.0577163 -0.143986 0.783705 0.448434 -0.429783 255 255 255 255 
-0.0464255 -0.130125 0.200138 0.533426 0.0701211 0.842935 255 255 255 255 
-0.00954515 0.144081 0.120765 -0.0751401 0.982146 -0.172462 255 255 255 255 
0.0191663 -0.0753863 0.183853 -0.551175 -0.740853 -0.383853 255 255 255 255 
-0.0455991 0.0275815 -0.178891 0.327887 -0.0193213 -0.944519 255 255 255 255 
0.007693 0.235393 0.3606 0.0497633 0.77858 0.625569 255 255 255 255 
0.00943523 0.139768 0.349061 0.358556 -0.530706 0.767977 255 255 255 255 
-0.019694 0.0282228 -0.167915 0.38709 -0.602996 -0.697537 255 255 255 255 
-0.0812057 0.0377788 -0.128809 -0.92492 0.273725 -0.263814 255 255 255 255 
-0.0672399 -0.0237026 -0.17034 -0.836894 0.0034989 -0.547354 255 255 255 255 
0.0113222 0.188915 0.399974 0.154352 0.849065 0.505237 255 255 255 255 
0.0234915 -0.0650371 0.147043 0.165972 -0.983262 -0.0751633 255 255 255 255 
-0.0862862 0.0210272 0.214348 -0.883644 -0.0902979 0.459369 255 255 255 255 
-0.071534 -0.0301002 0.0633256 -0.790229 -0.612056 -0.0304104 255 255 255 255 
0.0384697 -0.0717387 -0.144016 -0.966407 -0.180421 -0.183044 255 255 255 255 
0.0420005 0.195912 0.25687 0.841315 0.424179 -0.335055 255 255 255 255 
0.0415599 0.230921 0.339698 0.963434 0.267425 0.0166923 255 255 255 255 
0.0304134 0.154649 0.179848 0.504645 0.805809 -0.309849 255 255 255 255 
0.060018 0.116817 0.0833341 0.735085 0.668674 -0.111921 255 255 255 255 
-0.0620037 0.0373287 0.248162 -0.761469 -0.121616 0.636691 255 255 255 255 
-0.00200691 0.134453 -0.0314376 -0.0565659 0.994736 -0.0854383 255 255 255 255 
0.0828076 0.0604008 0.0152954 0.963089 0.227207 -0.144348 255 255 255 255 
-0.0470661 -0.0336899 -0.159836 0.620373 -0.242674 -0.745819 255 255 255 255 
0.066034 -0.125637 0.190792 0.893609 -0.0598047 0.444845 255 255 255 255 
-0.0481518 0.123567 0.0350098 -0.549812 0.83317 -0.0594573 255 255 255 255 
-0.00547398 0.207367 0.230763 -0.230016 0.720835 -0.653827 255 255 255 255 
-0.0592119 0.0451945 0.251976 -0.76576 -0.121474 0.631551 255 255 255 255 
-0.0105683 -0.0676814 0.115167 -0.114071 -0.990678 -0.074464 255 255 255 255 
-0.0788323 0.116677 0.157294 -0.769742 0.638234 -0.0124796 255 255 255 255 
0.0481961 0.122552 0.0472635 0.607998 0.79006 -0.0783869 255 255 255 255 
-0.0611003 -0.0333903 -0.03745 -0.72048 -0.629908 0.29004 255 255 255 255 
0.0234729 0.0837081 0.305563 0.403366 -0.494449 0.769945 255 255 255 255 
0.0489072 -0.259026 0.22974 0.0112577 -0.980513 0.19613 255 255 255 255 
-0.0615909 -0.124843 0.174046 -0.700298 -0.186647 -0.689018 255 255 255 255 
-0.0651179 -0.0171016 0.230053 -0.692735 -0.269073 0.669117 255 255 255 255 
0.0486082 0.178765 0.247739 0.858449 0.426836 -0.284387 255 255 255 255 
0.00145892 0.187431 0.206481 -0.0795823 0.780992 -0.61945 255 255 255 255 
-0.0494335 -0.0419858 0.230116 -0.561701 -0.370986 0.739501 255 255 255 255 
-0.0362115 0.124161 -0.0635952 -0.42404 0.889938 -0.167929 255 255 255 255 
0.0037944 0.134207 0.352309 -0.125849 -0.991867 0.0190439 255 255 255 255 
-0.0440715 -0.249148 -0.118674 0.325978 0.566131 0.757122 255 255 255 255 
0.0376046 0.132252 0.0813484 0.389765 0.914136 -0.111529 255 255 255 255 
-0.0775794 0.108561 0.132057 -0.818976 0.552183 -0.156117 255 255 255 255 
0.0444663 -0.159923 -0.154209 -0.27818 -0.208476 0.937632 255 255 255 255 
0.0624423 -0.0473187 -0.163936 -0.0346301 -0.126238 -0.991395 255 255 255 255 
0.067118 -0.0412982 0.147193 0.714885 -0.37695 -0.588938 255 255 255 255 
-0.0909031 0.0410952 0.0388306 -0.99744 0.00883378 -0.0709598 255 255 255 255 
-0.0548776 -0.0359881 -0.00477873 -0.619309 -0.784199 -0.0385819 255 255 255 255 
-0.00279178 0.113704 -0.120082 -0.0400742 0.8532 -0.520041 255 255 255 255 
0.0699119 -0.0396036 -0.15754 0.843718 -0.0477374 -0.534659 255 255 255 255 
-0.0304701 0.113662 -0.107084 -0.307136 0.86256 -0.402066 255 255 255 255 
-0.0416627 -0.0551191 0.0870418 -0.591349 -0.805167 -0.0448579 255 255 255 255 
-0.0406282 0.120022 -0.0700941 -0.511308 0.843088 -0.166634 255 255 255 255 
-0.0819554 -0.0379848 -0.0664708 -0.834686 -0.351505 0.423962 255 255 255 255 
-0.0439155 -0.220229 -0.149111 0.238148 0.136333 0.961613 255 255 255 255 
-0.00843585 0.169054 0.408853 -0.891357 -0.0117573 0.453149 255 255 255 255 
-0.0361499 0.131744 0.0740105 -0.36928 0.92408 -0.0985337 255 255 255 255 
-0.0321955 -0.230285 0.234234 -0.28659 0.783334 0.551593 255 255 255 255 
0.0549108 0.0615231 -0.149118 0.614379 0.50841 -0.603371 255 255 255 255 
-0.0718062 0.029409 -0.162498 -0.833981 0.259416 -0.48701 255 255 255 255 
-0.091263 -0.019286 0.181602 -0.972203 -0.23175 -0.0333585 255 255 255 255 
0.0570585 -0.218619 -0.165008 0.863314 0.0694364 -0.499868 255 255 255 255 
0.0476411 -0.213306 0.180589 -0.88869 0.385887 -0.247633 255 255 255 255 
-0.0800604 -0.242659 -0.160407 -0.475237 -0.208826 -0.854717 255 255 255 255 
-0.0616355 0.0187019 -0.177342 -0.639145 0.309383 -0.704114 255 255 255 255 
-0.0599463 0.113397 0.0526319 -0.709127 0.701334 -0.0725914 255 255 255 255 
0.0866477 0.00357943 0.0832668 0.943059 -0.332616 -0.00252164 255 255 255 255 
-0.0596183 0.0463093 -0.162083 -0.528151 0.447528 -0.721648 255 255 255 255 
0.0515668 0.148142 0.210003 0.743645 0.618176 -0.254659 255 255 255 255 
-0.0692077 -0.012849 -0.170565 -0.847681 0.0407334 -0.52894 255 255 255 255 
0.0678036 -0.094506 -0.157452 0.94161 -0.0757322 -0.328079 255 255 255 255 
0.0933906 0.0185242 0.16443 0.981964 -0.154035 -0.109632 255 255 255 255 
0.0904994 0.0457861 0.0468621 0.984295 0.142942 -0.10359 255 255 255 255 
-0.0846721 0.00773569 0.121608 -0.93588 -0.339568 -0.0939289 255 255 255 255 
0.031687 -0.163357 0.186944 -0.74507 0.0335066 0.666144 255 255 255 255 
-0.0317538 -0.169156 0.184095 0.849698 -0.0970871 -0.518254 255 255 255 255 
-0.037953 -0.0660243 0.151577 -0.114257 -0.983529 -0.140057 255 255 255 255 
0.0529678 0.174633 0.25775 0.919405 0.3425 -0.193359 255 255 255 255 
-0.0939589 0.00630276 0.193957 -0.971369 -0.133592 0.196458 255 255 255 255 
0.0610232 0.130545 0.166004 0.652343 0.752746 -0.0884474 255 255 255 255 
-0.0835021 -0.000413565 -0.0524975 -0.985731 -0.0603643 0.157135 255 255 255 255 
0.0310785 0.145451 0.352475 0.102984 0.780632 0.616448 255 255 255 255 
0.08942 0.0594739 0.0704834 0.966523 0.246781 -0.0702244 255 255 255 255 
-0.035092 0.130585 0.0471227 -0.373376 0.925462 -0.0641136 255 255 255 255 
-0.0371185 -0.0407702 -0.0177291 -0.179346 -0.978021 -0.106351 255 255 255 255 
-0.0509613 -0.131479 0.203109 0.533501 0.0702495 0.842877 255 255 255 255 
0.0699715 -0.0911905 0.174963 0.796083 -0.222328 -0.562869 255 255 255 255 
-0.0590813 -0.100211 -0.167673 0.654845 0.233374 -0.718828 255 255 255 255 
-0.0456283 -0.0534236 0.0716807 -0.637709 -0.76947 -0.0352647 255 255 255 255 
-0.0912106 0.0237272 0.115893 -0.985877 -0.163991 -0.0339723 255 255 255 255 
0.0466971 -0.0803268 0.203402 -0.462174 -0.77925 0.423279 255 255 255 255 
-0.0749147 0.0555169 -0.129113 -0.875933 0.375809 -0.302504 255 255 255 255 
0.0165624 0.137629 0.0797332 0.151265 0.98113 -0.120424 255 255 255 255 
0.0459831 0.0610902 -0.154989 0.495078 0.505352 -0.706765 255 255 255 255 
-0.030181 0.140923 0.124353 -0.310116 0.93734 -0.158813 255 255 255 255 
0.0237466 -0.0664012 0.159289 0.106581 -0.991996 -0.0677119 255 255 255 255 
-0.0770539 -0.246401 -0.113783 0.0575372 0.655561 0.752947 255 255 255 255 
0.0667431 0.10737 0.0836169 0.812737 0.571273 -0.114482 255 255 255 255 
0.0586109 -0.12582 0.197636 0.515334 -0.119949 0.848554 255 255 255 255 
-0.0131753 0.210179 0.236123 -0.336887 0.696869 -0.633152 255 255 255 255 
-0.00232501 0.193458 0.21416 -0.168537 0.762447 -0.624715 255 255 255 255 
-0.00220527 0.119156 -0.11172 -0.0362249 0.883623 -0.466795 255 255 255 255 
-0.0773647 0.11273 0.138603 -0.791777 0.596735 -0.13037 255 255 255 255 
0.0454279 -0.174557 -0.156232 -0.360397 -0.18829 0.913598 255 255 255 255 
-0.0797861 -0.0344595 -0.0609194 -0.81042 -0.37893 0.446802 255 255 255 255 
-0.0422562 -0.249016 -0.153759 0.816006 -0.267399 -0.512477 255 255 255 255 
-0.0821019 -0.0364308 0.167573 -0.869402 -0.292972 -0.397879 255 255 255 255 
-0.0838203 -0.232777 -0.144775 -0.943935 0.177133 -0.278587 255 255 255 255 
-0.0671535 0.0556581 -0.147647 -0.701916 0.463098 -0.54116 255 255 255 255 
0.0944514 0.0186059 0.19043 0.985055 -0.0934522 0.144681 255 255 255 255 
0.0283731 0.135045 0.0761173 0.288799 0.950935 -0.110983 255 255 255 255 
0.0447258 -0.258206 0.204808 -0.0345244 -0.771332 -0.635496 255 255 255 255 
0.0545591 0.164884 0.245403 0.920865 0.349095 -0.173611 255 255 255 255 
-0.0915984 0.00127399 0.201164 -0.93192 -0.149363 0.330479 255 255 255 255 
0.0451169 0.13704 0.138614 0.397803 0.896474 -0.195161 255 255 255 255 
-0.0725922 -0.110391 -0.157465 -0.858741 0.0164502 -0.512147 255 255 255 255 
-0.0866797 -0.0164128 -0.0653475 -0.98513 -0.0744672 0.154833 255 255 255 255 
-0.0127907 0.145438 0.129136 -0.0987637 0.976851 -0.189758 255 255 255 255 
-0.08919 0.0263094 0.208431 -0.919147 -0.0653449 0.388457 255 255 255 255 
0.0649999 0.119081 0.240689 0.976447 0.177794 0.122233 255 255 255 255 
0.0763054 -0.0187657 0.0474626 0.827179 -0.557846 -0.0676888 255 255 255 255 
0.0130873 0.158202 0.171153 0.257672 0.891762 -0.371976 255 255 255 255 
0.00680446 0.208088 0.22903 -0.171163 0.729999 -0.661668 255 255 255 255 
-0.0420019 0.12155 -0.0563955 -0.525581 0.842293 -0.119609 255 255 255 255 
-0.0332093 -0.186921 0.183755 0.87372 -0.095098 -0.477044 255 255 255 255 
-0.0818658 0.107113 0.141025 -0.836621 0.532898 -0.126825 255 255 255 255 
-0.0041245 0.12557 -0.0978086 -0.0797185 0.926056 -0.36887 255 255 255 255 
-0.100286 0.0541357 0.16235 -0.986462 0.151854 0.0619145 255 255 255 255 
-0.0816207 -0.0442028 0.170337 -0.878137 -0.290728 -0.379937 255 255 255 255 
0.0496327 0.171481 0.238534 0.839276 0.460008 -0.289841 255 255 255 255 
-0.0913273 0.0189111 0.20347 -0.933737 -0.0863503 0.347389 255 255 255 255 
-0.0847294 -0.0129291 -0.0579732 -0.976407 -0.110349 0.185612 255 255 255 255 
0.0713243 -0.0686836 0.162353 0.884282 -0.269456 -0.381363 255 255 255 255 
-0.0672874 -0.0876539 -0.163785 -0.821224 0.0424579 -0.569024 255 255 255 255 
-0.0012865 0.148476 0.142747 0.0323762 0.967108 -0.252296 255 255 255 255 
0.0737471 -0.0243773 0.0710953 0.83644 -0.547172 -0.0311707 255 255 255 255 
0.0073602 0.155785 0.164224 0.165063 0.922174 -0.349784 255 255 255 255 
-0.0308305 0.128811 -0.0479325 -0.351869 0.927975 -0.122679 255 255 255 255 
-0.0725874 -0.232131 -0.166094 -0.502434 -0.169521 -0.847834 255 255 255 255 
0.0959429 0.0356348 0.191175 0.97841 -0.0323706 0.204122 255 255 255 255 
0.0594079 0.148283 0.243543 0.954596 0.286158 -0.0828293 255 255 255 255 
-0.0859697 -0.0227033 -0.0641997 -0.957607 -0.164419 0.236549 255 255 255 255 
0.0690882 -0.0757732 0.163524 0.850125 -0.260459 -0.457656 255 255 255 255 
-0.0223889 0.148183 0.146262 -0.243618 0.944343 -0.221058 255 255 255 255 
0.00524642 0.166062 0.181331 0.177437 0.861234 -0.476227 255 255 255 255 
-0.0305815 0.127457 -0.0594174 -0.338606 0.926983 -0.161394 255 255 255 255 
-0.020317 0.121383 -0.0971469 -0.263315 0.899309 -0.349153 255 255 255 255 
-0.0738998 0.12083 0.153808 -0.71588 0.696325 -0.0514538 255 255 255 255 
0.0971873 0.0410379 0.186221 0.987092 -0.0267368 0.157905 255 255 255 255 
0.0585576 0.148288 0.235455 0.935546 0.335759 -0.109632 255 255 255 255 
0.0614876 -0.0828372 0.157159 0.764201 -0.257059 -0.591539 255 255 255 255 
-0.0355867 0.142529 0.143535 -0.406503 0.896178 -0.177819 255 255 255 255 
0.06241 0.135801 0.249953 0.977367 0.21155 -0.000500425 255 255 255 255 
0.0694723 -0.0306035 0.0726283 0.792267 -0.609244 -0.0336872 255 255 255 255 
-0.0182036 0.165878 0.187317 -0.49979 0.746919 -0.438546 255 255 255 255 
-0.0539845 0.109895 -0.0547495 -0.683786 0.727977 -0.0498656 255 255 255 255 
0.0980415 0.0466084 0.181049 0.991372 -0.0173672 0.129921 255 255 255 255 
0.0724756 -0.0254539 0.0823875 0.834028 -0.551332 -0.0207428 255 255 255 255 
0.0401457 0.20933 0.343414 -0.278902 0.458713 -0.84368 255 255 255 255 
-0.036652 0.125717 -0.0523588 -0.423638 0.896534 -0.129453 255 255 255 255 
-0.0575532 0.109436 -0.0364866 -0.687035 0.725493 -0.04054 255 255 255 255 
0.0984501 0.0561963 0.178 0.987222 0.0275222 0.156955 255 255 255 255 
-0.0476965 0.119281 -0.039224 -0.54994 0.831451 -0.0790868 255 255 255 255 
-0.0158725 0.154493 0.161065 -0.233859 0.922476 -0.307162 255 255 255 255 
-0.0528124 0.116281 -0.0250673 -0.592829 0.802564 -0.0666636 255 255 255 255 
-0.0411556 0.0863042 0.288692 -0.775329 -0.281013 0.565593 255 255 255 255 
0.0277985 -0.0368216 -0.106917 -0.88461 -0.464127 0.0452838 255 255 255 255 
-0.0871699 0.0165971 -0.0927037 -0.990263 0.136116 -0.0291927 255 255 255 255 
0.0565861 0.0734886 -0.130802 0.734574 0.541665 -0.408656 255 255 255 255 
-0.0610481 0.0811014 -0.128655 -0.601619 0.602496 -0.524456 255 255 255 255 
-0.0647243 0.0757881 -0.128768 -0.757275 0.510473 -0.407372 255 255 255 255 
-0.0822375 -0.0561289 -0.0781095 -0.88703 -0.303179 0.348223 255 255 255 255 
-0.0924339 -0.0120266 0.191165 -0.972679 -0.200804 0.116504 255 255 255 255 
-0.0242504 0.0514342 -0.173904 -0.46143 0.573018 -0.677298 255 255 255 255 
-0.0280686 0.203385 0.369393 -0.84734 0.206975 0.489056 255 255 255 255 
0.0238543 0.183363 0.387238 0.923882 0.0273244 0.381701 255 255 255 255 
-0.0888494 0.100006 0.157517 -0.901395 0.431801 -0.032165 255 255 255 255 
0.0616499 0.13596 0.226489 0.943694 0.326994 -0.0501643 255 255 255 255 
0.0763063 -0.0867606 -0.136812 0.96696 -0.120912 -0.224431 255 255 255 255 
-0.0842247 0.0295569 -0.121078 -0.952894 0.226159 -0.202101 255 255 255 255 
-0.0300412 -0.234918 0.243947 -0.300996 0.776389 0.553734 255 255 255 255 
-0.0797546 -0.00581771 -0.0425853 -0.969021 -0.165862 0.182998 255 255 255 255 
0.0727344 -0.102187 0.181708 0.755845 -0.207707 -0.620931 255 255 255 255 
-0.0751475 -0.0560106 0.165078 -0.828738 -0.28887 -0.479321 255 255 255 255 
-0.054863 0.0761987 -0.137948 -0.52983 0.603155 -0.596225 255 255 255 255 
0.0580731 0.147213 0.228879 0.911736 0.388806 -0.132538 255 255 255 255 
0.0757312 -0.0897536 0.185681 0.711283 -0.262507 0.652048 255 255 255 255 
0.0759917 -0.0867113 -0.104945 0.884858 -0.375225 0.276103 255 255 255 255 
0.0543336 0.154244 0.226158 0.849521 0.480223 -0.218402 255 255 255 255 
0.0549723 -0.0997894 -0.108021 -0.840565 -0.333888 0.426578 255 255 255 255 
0.0701392 -0.0921061 -0.0969458 0.859724 -0.402102 0.314943 255 255 255 255 
-0.0849087 -0.00764889 0.0689216 -0.917403 -0.397835 -0.00996479 255 255 255 255 
0.05566 -0.0396651 0.0292208 0.6144 -0.780367 -0.116366 255 255 255 255 
0.0358379 -0.244879 -0.128024 -0.408482 0.838828 0.359876 255 255 255 255 
-0.0578214 0.120482 0.289632 -0.961207 -0.105844 0.254712 255 255 255 255 
0.0171778 0.239061 0.354757 0.107875 0.789682 0.603958 255 255 255 255 
0.0371249 -0.0751547 -0.132247 -0.967996 -0.245465 0.0522479 255 255 255 255 
-0.0379907 -0.128688 0.174313 0.808413 -0.14335 -0.570893 255 255 255 255 
0.0922849 0.0441883 0.0752001 0.991334 0.119924 -0.0536177 255 255 255 255 
0.0520389 -0.0191411 -0.171184 -0.205198 -0.202337 -0.957577 255 255 255 255 
0.049403 0.0747872 0.271587 0.81791 -0.214054 0.534045 255 255 255 255 
-0.0588799 -0.25787 0.218934 0.152159 -0.985895 0.0697096 255 255 255 255 
0.0053829 0.25967 0.308072 0.000533697 0.993229 0.116169 255 255 255 255 
0.0841278 -0.0493024 -0.0964779 0.962838 -0.199298 0.182271 255 255 255 255 
0.0500959 0.118372 0.0130428 0.656839 0.749953 -0.0783202 255 255 255 255 
0.0567742 0.0614631 0.257426 0.82225 -0.113125 0.55777 255 255 255 255 
-0.0595423 -0.0407955 0.112725 -0.724857 -0.682235 -0.0955907 255 255 255 255 
-0.0380218 0.127169 -0.0170607 -0.436155 0.89715 -0.0699353 255 255 255 255 
0.0668875 -0.0209758 -0.00699202 0.713162 -0.699282 -0.0490432 255 255 255 255 
0.0901376 0.00484432 0.160206 0.961036 -0.201443 -0.189291 255 255 255 255 
0.0544605 0.166721 0.330509 0.966694 0.0170808 0.255363 255 255 255 255 
-0.0154238 0.114113 -0.115895 -0.190357 0.856299 -0.48012 255 255 255 255 
-0.026568 0.136581 0.346905 -0.244732 -0.952103 0.18332 255 255 255 255 
0.0237645 -0.0601977 0.0498577 0.397874 -0.908274 -0.12936 255 255 255 255 
-0.0441081 0.225537 0.322213 -0.835373 0.288413 0.467942 255 255 255 255 
0.0526829 0.216097 0.291404 0.877389 0.405318 -0.25672 255 255 255 255 
0.0200693 0.0127979 -0.180202 0.86764 0.339444 -0.363288 255 255 255 255 
-0.0923061 0.0452747 0.0753627 -0.998443 0.0492058 -0.0262928 255 255 255 255 
0.0805777 0.0615297 0.00499518 0.961151 0.227635 -0.156114 255 255 255 255 
0.0376545 -0.0383102 -0.075052 -0.825808 -0.499264 0.262253 255 255 255 255 
0.0491814 0.0238385 0.259263 0.671668 -0.192878 0.715304 255 255 255 255 
0.0739375 -0.0197438 -0.0510089 0.688807 -0.603878 0.401094 255 255 255 255 
-0.0617865 0.136561 0.245501 -0.977803 0.209477 -0.00452002 255 255 255 255 
-0.0162596 0.00794081 -0.183659 -0.586018 -0.667853 0.458863 255 255 255 255 
-0.0551229 -0.105205 -0.16642 0.652719 0.259128 -0.711906 255 255 255 255 
0.003342 0.229836 0.251883 0.13747 0.686829 -0.7137 255 255 255 255 
0.053127 -0.095978 0.160191 -0.403855 -0.437414 -0.803474 255 255 255 255 
-0.0469896 -0.10411 0.162485 0.722162 -0.235233 -0.650498 255 255 255 255 
0.0257252 0.154828 0.173357 0.418165 0.850157 -0.319955 255 255 255 255 
-0.0899058 0.0457218 0.205313 -0.935975 -0.00743854 0.351988 255 255 255 255 
-0.0587618 -0.0647543 -0.0843344 0.447663 -0.636773 0.627788 255 255 255 255 
0.0589662 0.0891814 -0.0955351 0.773811 0.597148 -0.211261 255 255 255 255 
0.0536873 0.0102992 0.251476 0.675533 -0.208082 0.707359 255 255 255 255 
0.061654 -0.110931 0.196595 0.555752 -0.173593 0.813022 255 255 255 255 
0.0433024 -0.0526775 0.0640691 0.549705 -0.832338 -0.0709818 255 255 255 255 
-0.0917964 0.0472562 0.0645315 -0.997185 0.0664599 -0.034713 255 255 255 255 
0.0517199 0.133883 0.134244 0.464106 0.866445 -0.184064 255 255 255 255 
-0.0685166 0.0779925 -0.113402 -0.853632 0.460086 -0.244197 255 255 255 255 
0.0533157 -0.134043 0.167567 0.672939 -0.165906 -0.720852 255 255 255 255 
-0.0345156 0.2525 0.291759 -0.60692 0.663208 -0.437953 255 255 255 255 
-0.0201599 0.135308 0.0685158 -0.210401 0.972626 -0.0986447 255 255 255 255 
-0.0518144 0.16291 0.325575 -0.981907 0.106005 0.156915 255 255 255 255 
0.0105544 -0.0689044 0.176421 0.0053917 -0.999975 0.00452707 255 255 255 255 
0.0794963 0.0399938 -0.0769045 0.978328 0.207061 7.01091e-005 255 255 255 255 
0.031263 -0.0130419 -0.165255 -0.546436 -0.261977 -0.795472 255 255 255 255 
0.012075 0.0896092 -0.145396 0.335596 0.689119 -0.642254 255 255 255 255 
0.0674864 -0.000788065 0.233596 0.70468 -0.228301 0.671793 255 255 255 255 
-0.0146254 0.0691327 -0.165029 -0.434675 0.603579 -0.668394 255 255 255 255 
-0.0381723 0.257298 0.308657 -0.767068 0.44544 0.461726 255 255 255 255 
-0.0474299 -0.0630062 0.219234 -0.0682035 -0.638233 0.766816 255 255 255 255 
-0.086361 0.0248403 -0.0857261 -0.987684 0.156231 -0.00847387 255 255 255 255 
-0.0628433 0.0379097 -0.166021 -0.562239 0.394245 -0.726951 255 255 255 255 
0.0892959 0.0617032 0.0785164 0.962833 0.261072 -0.0692422 255 255 255 255 
-0.0443303 -0.132128 -0.173302 0.610187 0.288906 -0.737702 255 255 255 255 
0.0747552 0.00102925 0.226705 0.740585 -0.209304 0.638534 255 255 255 255 
0.0644568 -0.0341049 -0.165002 0.7937 -0.049928 -0.606257 255 255 255 255 
0.0355344 0.248841 0.28934 0.741139 0.592079 -0.316473 255 255 255 255 
-0.0637249 -0.239308 -0.169901 -0.492433 -0.175924 -0.852385 255 255 255 255 
0.0813244 0.0857244 0.103601 0.880486 0.453063 -0.139563 255 255 255 255 
-0.0261431 0.174382 0.206433 -0.539365 0.685597 -0.488919 255 255 255 255 
-0.0882126 0.00129171 -0.0727572 -0.995901 0.0340332 0.083806 255 255 255 255 
-0.0491496 0.202545 0.285955 -0.918646 0.349118 -0.184947 255 255 255 255 
-0.0492553 0.241426 0.292346 -0.620566 0.640853 -0.451891 255 255 255 255 
-0.0547101 -0.00697278 0.244319 -0.688482 -0.224965 0.689481 255 255 255 255 
-0.0155828 0.252283 0.318093 0.72011 -0.676545 -0.154043 255 255 255 255 
0.0790207 0.016689 0.225899 0.818912 -0.122218 0.560755 255 255 255 255 
0.0443966 0.145314 0.183417 0.604194 0.763921 -0.226659 255 255 255 255 
0.0277321 0.259926 0.302878 0.0653516 0.99491 0.0767063 255 255 255 255 
-0.0713957 0.122462 0.171158 -0.721414 0.691335 0.0402098 255 255 255 255 
-0.0178311 0.0895234 -0.144239 -0.267755 0.719123 -0.641225 255 255 255 255 
-0.00385828 0.135253 -0.00613482 -0.0787515 0.995629 -0.0502099 255 255 255 255 
0.0337965 -0.0340927 -0.0650013 -0.10546 -0.99181 0.0720435 255 255 255 255 
-0.0524404 0.131322 0.13037 -0.540389 0.826706 -0.156641 255 255 255 255 
-0.0534483 -0.134674 0.16819 -0.704865 -0.182175 -0.685549 255 255 255 255 
-0.083411 -0.0411902 0.198996 -0.846027 -0.279801 0.453816 255 255 255 255 
-0.0023262 -0.032107 -0.22489 -0.302397 -0.76989 0.561983 255 255 255 255 
-0.0507352 -0.242391 -0.123955 0.112917 0.764333 0.634857 255 255 255 255 
0.00976334 0.00173972 -0.218999 0.88831 0.346393 -0.301524 255 255 255 255 
0.0769534 -0.0122254 -0.148409 0.8552 -0.0195514 -0.517929 255 255 255 255 
0.00427277 0.124027 0.338833 -0.00470043 -0.616292 0.787503 255 255 255 255 
0.0473371 -0.0587671 -0.161075 -0.805484 -0.180382 -0.564498 255 255 255 255 
0.0389482 -0.226147 -0.147165 -0.976467 0.0633608 0.206149 255 255 255 255 
0.0953011 0.0247978 0.17004 0.990922 -0.125079 -0.0492764 255 255 255 255 
-0.0797853 -0.0177166 0.074637 -0.872446 -0.488688 -0.00458748 255 255 255 255 
0.0692061 0.123063 0.180012 0.741479 0.670833 -0.0138925 255 255 255 255 
-0.0628552 0.066069 0.246298 -0.836029 -0.0837924 0.54225 255 255 255 255 
0.0570106 -0.149572 -0.163344 0.974348 -0.147002 0.170401 255 255 255 255 
0.0569701 -0.0398322 0.108621 0.742723 -0.663327 -0.0914342 255 255 255 255 
-0.0870262 0.0200653 -0.0783725 -0.991488 0.125546 0.0345073 255 255 255 255 
-0.087863 0.0705448 0.1079 -0.962146 0.232743 -0.141793 255 255 255 255 
0.0650164 -0.049633 0.214582 0.579532 -0.371353 0.725423 255 255 255 255 
-0.0899547 -0.010825 -0.0986141 -0.99964 0.0263584 0.00497224 255 255 255 255 
0.0679452 0.104932 0.229409 0.953657 0.161631 0.253798 255 255 255 255 
0.0667607 -0.0171594 -0.0350018 0.660665 -0.677555 0.323175 255 255 255 255 
0.0193993 -0.0674286 0.163356 0.0674149 -0.995997 -0.0586925 255 255 255 255 
-0.0708419 0.0441442 0.2367 -0.816117 -0.0719702 0.573388 255 255 255 255 
0.0476088 0.22747 0.284805 0.798824 0.496582 -0.339539 255 255 255 255 
-0.0489072 0.181356 0.333185 -0.976335 0.136665 0.167611 255 255 255 255 
0.0289691 0.0987024 -0.125585 0.378124 0.760836 -0.527401 255 255 255 255 
0.0233723 0.0483889 -0.168259 0.297441 0.33948 -0.892346 255 255 255 255 
0.0336111 -0.0251422 -0.15834 -0.806036 -0.285892 -0.518239 255 255 255 255 
-0.0806976 0.042673 -0.0164338 -0.999207 0.0360472 0.0169147 255 255 255 255 
0.0363116 0.24884 0.317447 0.915184 0.401265 -0.0377429 255 255 255 255 
-0.06976 -0.025397 0.0200899 -0.771908 -0.632144 -0.067472 255 255 255 255 
0.0454082 0.197629 0.267472 0.879846 0.377422 -0.28883 255 255 255 255 
-0.0793817 0.100601 0.12514 -0.859746 0.480838 -0.172137 255 255 255 255 
0.0373857 -0.0420748 -0.0820982 -0.833167 -0.495441 0.245704 255 255 255 255 
-0.0641358 0.0786459 0.244494 -0.871906 -0.083304 0.482535 255 255 255 255 
-0.0321942 -0.06935 0.162627 0.0349645 -0.990804 -0.130712 255 255 255 255 
-0.074329 -0.0260103 0.153003 -0.826453 -0.335304 -0.452269 255 255 255 255 
-0.004131 0.0754133 -0.16582 -0.385608 0.632578 -0.671678 255 255 255 255 
0.0274071 0.191658 0.375914 0.919906 0.0527418 0.388576 255 255 255 255 
-0.0727601 -0.0178348 -0.0324262 -0.858193 -0.458521 0.23079 255 255 255 255 
-0.0446012 0.1607 0.346214 -0.912598 -0.040364 0.40686 255 255 255 255 
-0.0535234 -0.195858 -0.150883 0.276733 0.0933413 0.956403 255 255 255 255 
-0.0598993 0.103472 -0.0473808 -0.740465 0.671954 -0.0137505 255 255 255 255 
0.0358848 0.0596688 -0.159773 0.452613 0.485226 -0.748129 255 255 255 255 
-0.0432365 0.206199 0.34252 -0.924649 0.239603 0.295996 255 255 255 255 
0.0323781 -0.152484 0.176871 -0.638984 -0.118563 -0.760028 255 255 255 255 
0.0863038 0.104832 0.168235 0.795132 0.600637 0.0836728 255 255 255 255 
-0.0579084 -0.120654 0.201155 -0.710694 -0.149772 0.687373 255 255 255 255 
0.0400254 -0.0919258 -0.129459 -0.923069 -0.253387 0.289377 255 255 255 255 
-0.062131 -0.0528346 0.14887 -0.769913 -0.318277 -0.553113 255 255 255 255 
-0.0942701 0.0631942 0.190804 -0.970726 0.102168 0.217375 255 255 255 255 
0.0774316 -0.018981 -0.0553999 0.708597 -0.57761 0.405285 255 255 255 255 
-0.0924637 0.0359403 0.112737 -0.997646 -0.0459107 -0.0509327 255 255 255 255 
0.0206382 -0.00271863 -0.163528 -0.49858 -0.278707 -0.820817 255 255 255 255 
0.0190319 0.233488 0.25773 0.389968 0.65428 -0.647952 255 255 255 255 
0.0711549 0.0524469 -0.120796 0.894449 0.37624 -0.241668 255 255 255 255 
-0.0787004 0.00286142 -0.034371 -0.977543 -0.154567 0.143243 255 255 255 255 
0.0498285 -0.0629177 -0.0856588 -0.823684 -0.46621 0.32279 255 255 255 255 
-0.0181576 0.141089 0.107953 -0.180143 0.973363 -0.14182 255 255 255 255 
0.0618793 -0.0365074 0.0443343 0.692934 -0.715398 -0.08971 255 255 255 255 
0.0741289 0.0470345 -0.11504 0.923251 0.331677 -0.193902 255 255 255 255 
0.0285508 -0.00527893 0.266552 0.497642 -0.336677 0.799376 255 255 255 255 
-0.0894198 0.0642899 0.0453228 -0.980363 0.187346 -0.0615587 255 255 255 255 
-0.00376101 0.132755 0.349894 -0.185036 -0.973865 0.131717 255 255 255 255 
0.0156102 -0.0455935 0.239526 0.126402 -0.710748 0.691997 255 255 255 255 
-0.0687433 0.0516114 0.238912 -0.819274 -0.0678064 0.56938 255 255 255 255 
0.0453199 -0.0927272 -0.119092 -0.873844 -0.30334 0.379976 255 255 255 255 
0.0646356 0.113138 0.252873 0.976951 0.0871979 0.194841 255 255 255 255 
0.0902944 -0.0210445 0.197046 0.953148 -0.219789 0.20785 255 255 255 255 
-0.0659387 -0.0246744 0.133881 -0.840196 -0.428011 -0.332984 255 255 255 255 
-0.0863 0.0180855 -0.116743 -0.973031 0.171121 -0.154685 255 255 255 255 
-0.00773451 0.133605 0.359692 -0.163306 -0.985349 0.049178 255 255 255 255 
0.0789788 0.0477689 -0.0135933 0.97135 0.174309 -0.16154 255 255 255 255 
-0.0137293 0.143039 0.116109 -0.13076 0.978574 -0.159046 255 255 255 255 
0.0675489 0.106951 0.089612 0.820807 0.556467 -0.128919 255 255 255 255 
-0.0362053 -0.229128 0.200458 0.796954 0.571526 -0.195508 255 255 255 255 
-0.0627798 -0.0801719 -0.0944553 0.700482 -0.551323 0.453176 255 255 255 255 
-0.0729723 0.0829839 -0.0661753 -0.883289 0.467635 0.0334253 255 255 255 255 
-0.0616454 -0.197185 0.184101 -0.970261 -0.120764 -0.209784 255 255 255 255 
-0.0516285 -0.0826215 0.201994 0.322848 -0.822752 0.467813 255 255 255 255 
-0.0808025 -0.0177159 -0.152257 -0.879626 0.0334789 -0.474487 255 255 255 255 
0.0826833 0.0015236 -0.071667 0.990588 0.0318392 0.13312 255 255 255 255 
-0.0407791 -0.137306 -0.172587 0.608581 0.288156 -0.739321 255 255 255 255 
-0.0375693 0.174986 0.220241 -0.638218 0.623165 -0.452043 255 255 255 255 
0.0827766 -0.0685756 -0.110272 0.984331 -0.175775 0.0139857 255 255 255 255 
0.0348413 -0.0482432 0.0131947 0.386963 -0.907523 -0.163286 255 255 255 255 
0.0588762 -0.23964 0.239783 0.222561 0.851281 0.475171 255 255 255 255 
-0.0618921 -0.240683 -0.123953 0.0863182 0.76916 0.6332 255 255 255 255 
0.0578704 0.170396 0.287739 0.987616 0.150498 -0.044331 255 255 255 255 
0.0825174 -0.0572656 0.18902 0.956625 -0.26745 -0.115498 255 255 255 255 
-0.0478679 -0.113003 0.199686 0.532798 0.0690636 0.843419 255 255 255 255 
-0.0243578 -0.0675139 0.152315 0.00273772 -0.991652 -0.128914 255 255 255 255 
-0.00834575 0.147985 0.139842 -0.0406721 0.971746 -0.232497 255 255 255 255 
0.0522134 -0.0396842 -0.0620579 -0.17533 -0.826652 0.534701 255 255 255 255 
0.0463246 0.0446046 -0.165847 0.448479 0.437425 -0.77944 255 255 255 255 
-0.00684888 0.250337 0.341732 -0.0239343 0.888562 0.458132 255 255 255 255 
0.033207 0.109867 0.316866 0.470578 -0.490553 0.733427 255 255 255 255 
0.0120055 0.134413 -0.0163531 0.00821978 0.998281 -0.0580301 255 255 255 255 
-0.0728259 -0.0242111 0.102987 -0.84359 -0.535755 -0.0363641 255 255 255 255 
-0.0819096 0.0438726 -0.108106 -0.950008 0.273442 -0.150712 255 255 255 255 
-0.082308 0.0250723 -0.00820166 -0.995169 -0.0930523 -0.0313158 255 255 255 255 
-0.0668504 0.115948 0.236927 -0.987231 0.119676 0.105128 255 255 255 255 
-0.0555996 -0.260536 -0.146953 0.0274256 -0.963049 -0.267928 255 255 255 255 
-0.010647 0.205069 0.229824 -0.284718 0.7172 -0.636051 255 255 255 255 
-0.0218431 0.13249 0.336224 -0.443657 -0.570823 0.690891 255 255 255 255 
0.0782126 -0.00458488 0.140776 0.894441 -0.328229 -0.303713 255 255 255 255 
0.0843344 -0.00136434 0.0880865 0.924304 -0.381645 -0.00295331 255 255 255 255 
-0.0364247 0.248199 0.287867 -0.625161 0.639757 -0.447085 255 255 255 255 
0.0487734 -0.184715 0.202768 0.0814 0.18538 0.97929 255 255 255 255 
0.0399028 -0.0529942 0.135397 0.526374 -0.434918 -0.730601 255 255 255 255 
-0.0345784 0.103329 -0.122063 -0.30477 0.796483 -0.522236 255 255 255 255 
0.0207774 0.260194 0.300988 0.0252257 0.999395 0.0239569 255 255 255 255 
0.0629855 0.126615 0.274118 0.988752 0.0291538 0.146694 255 255 255 255 
-0.0413319 0.174794 0.354483 -0.915404 0.0536134 0.398949 255 255 255 255 
0.079013 0.0209623 -0.117916 0.968998 0.205834 -0.136656 255 255 255 255 
0.0560175 -0.0353257 0.00815432 0.611699 -0.783644 -0.108288 255 255 255 255 
-0.0310439 0.213754 0.361572 -0.831574 0.310436 0.460558 255 255 255 255 
-0.0831772 -0.0508358 -0.0766305 -0.887126 -0.299267 0.35135 255 255 255 255 
-0.0773644 0.109862 0.195148 -0.790772 0.599382 0.12418 255 255 255 255 
-0.00076662 0.131095 -0.0748449 -0.00764128 0.974583 -0.223895 255 255 255 255 
0.0779416 0.0202496 -0.12665 0.958829 0.227224 -0.170341 255 255 255 255 
0.0475764 -0.100274 -0.119828 -0.867138 -0.297974 0.399103 255 255 255 255 
-0.0764918 0.0955064 0.0964654 -0.856204 0.498538 -0.13555 255 255 255 255 
-0.0908097 -0.0645906 -0.119272 -0.986048 -0.141571 -0.0875628 255 255 255 255 
-0.00172945 -0.0340211 -0.0470484 0.0350333 -0.981826 -0.186521 255 255 255 255 
-0.0592148 0.14703 0.271257 -0.984352 0.172963 0.0336997 255 255 255 255 
-0.000437046 0.250256 0.342105 -0.00562051 0.882194 0.470853 255 255 255 255 
-0.0283192 0.181305 0.371811 -0.861608 0.0970705 0.498205 255 255 255 255 
0.00806591 0.134349 -0.0250249 -0.0144863 0.997228 -0.0729826 255 255 255 255 
0.0239909 -0.0518876 0.230782 0.0412875 -0.766956 0.64037 255 255 255 255 
-0.0459596 -0.0529729 0.0780605 -0.634114 -0.772636 -0.0305567 255 255 255 255 
-0.0603651 0.209054 0.305179 -0.793796 0.196052 0.575718 255 255 255 255 
-0.0258643 0.133278 0.0411604 -0.286285 0.956388 -0.0579959 255 255 255 255 
-0.0876947 0.0104324 0.109823 -0.960863 -0.275764 -0.0263862 255 255 255 255 
-0.0778194 0.0629998 -0.0447555 -0.966997 0.23624 0.0954374 255 255 255 255 
-0.00486598 -0.0126262 -0.199864 -0.414806 -0.733395 0.538579 255 255 255 255 
0.0597857 -0.246453 0.192693 0.875416 -0.026303 -0.482655 255 255 255 255 
-0.0543815 -0.13773 -0.182156 -0.683452 0.13607 -0.717202 255 255 255 255 
-0.0655602 -0.114863 0.194289 -0.71357 -0.159168 0.682264 255 255 255 255 
-0.0835247 0.101889 0.138545 -0.866038 0.478662 -0.144433 255 255 255 255 
0.0862102 0.014636 0.215646 0.877666 -0.108904 0.466736 255 255 255 255 
0.0325615 -0.176145 0.177823 -0.493058 -0.16343 -0.854508 255 255 255 255 
-0.0687191 0.111071 0.226955 -0.985012 0.142962 0.0965016 255 255 255 255 
0.062938 -0.157073 0.179246 0.666634 -0.137415 -0.732609 255 255 255 255 
-0.0663215 -0.0355582 0.0905649 -0.743137 -0.668948 -0.0160213 255 255 255 255 
-0.0914413 -0.0338511 -0.111865 -0.998679 -0.0509098 -0.00699676 255 255 255 255 
-0.0959912 0.0182355 0.173389 -0.992114 -0.114322 0.0513896 255 255 255 255 
-0.058793 0.1137 0.280118 -0.94468 -0.139322 0.296933 255 255 255 255 
0.0245886 0.228865 0.359178 -0.278902 0.458713 -0.84368 255 255 255 255 
0.0380615 -0.0835598 -0.131138 -0.942386 -0.256715 0.21449 255 255 255 255 
0.0725505 -0.0246695 0.146259 0.849659 -0.35659 -0.388489 255 255 255 255 
0.090748 0.0493506 0.0552061 0.980525 0.176497 -0.0861396 255 255 255 255 
0.0367189 0.0204887 -0.176981 0.279432 0.352237 -0.893223 255 255 255 255 
0.0598679 0.0981821 0.267141 0.892098 -0.180663 0.414152 255 255 255 255 
-0.0038585 -0.0416946 -0.0252127 0.0431922 -0.980068 -0.193911 255 255 255 255 
0.0217308 -0.0342795 -0.0481607 -0.0505607 -0.994743 -0.0890508 255 255 255 255 
0.0681398 -0.016508 -0.0217037 0.713792 -0.698563 0.0500969 255 255 255 255 
-0.0516122 0.169362 0.250561 -0.925021 0.347108 -0.154441 255 255 255 255 
-0.00648113 0.131606 0.344658 -0.197289 -0.971635 0.130393 255 255 255 255 
0.0448716 0.0320022 -0.172026 0.30872 0.375862 -0.873739 255 255 255 255 
-0.0662647 -0.0754464 0.203191 -0.667653 -0.306954 0.678247 255 255 255 255 
-0.058812 0.147163 0.246905 -0.964774 0.257651 -0.0531693 255 255 255 255 
0.00639872 0.0073057 -0.222169 0.904492 0.324675 -0.27655 255 255 255 255 
-0.0417863 -0.0373879 -0.0354035 -0.0815374 -0.994583 -0.0644629 255 255 255 255 
0.0394834 0.205242 0.261708 0.832017 0.420299 -0.362074 255 255 255 255 
0.076222 -0.0173604 0.091105 0.87253 -0.488186 -0.0191466 255 255 255 255 
0.0353227 0.252536 0.299736 0.787648 0.573586 -0.224967 255 255 255 255 
0.0555674 0.171263 0.266394 0.952854 0.275471 -0.127222 255 255 255 255 
0.043165 -0.149724 0.167923 -0.597156 -0.123551 -0.792553 255 255 255 255 
0.0613178 0.110573 0.0496501 0.748532 0.658065 -0.08155 255 255 255 255 
0.0812319 -0.077001 -0.119392 0.983704 -0.166138 -0.0687315 255 255 255 255 
0.0419668 0.0484995 0.272782 0.714099 -0.180869 0.676276 255 255 255 255 
0.0735239 -0.0775168 0.173704 0.867811 -0.253077 -0.427617 255 255 255 255 
0.047119 -0.118886 0.16501 -0.548632 -0.22884 -0.804137 255 255 255 255 
-0.0565455 -0.0771559 -0.159484 0.610074 0.0867029 -0.787586 255 255 255 255 
-0.0272692 -0.0854471 0.179395 0.726321 -0.275193 -0.629862 255 255 255 255 
-0.0460638 0.0659795 0.271369 -0.745514 -0.225059 0.627341 255 255 255 255 
-0.0130987 0.213449 0.372659 0.106252 0.808996 0.578131 255 255 255 255 
-0.0870491 0.00291823 -0.131749 -0.964768 0.118324 -0.234994 255 255 255 255 
-0.0811224 0.0504111 -0.0516661 -0.982033 0.161923 0.0969122 255 255 255 255 
0.0584298 0.0850764 -0.107814 0.763428 0.582659 -0.278723 255 255 255 255 
0.0415783 0.116356 0.315486 0.580109 -0.467423 0.667075 255 255 255 255 
-0.0762987 -0.0465283 0.206406 -0.744731 -0.308683 0.591685 255 255 255 255 
