ply
format ascii 1.0
comment VCGLIB generated
element vertex 674
property float x
property float y
property float z
property float nx
property float ny
property float nz
property uchar red
property uchar green
property uchar blue
property uchar alpha
element face 0
property list uchar int vertex_indices
end_header
0.0986535 -0.0925329 -0.143803 0.460207 -0.863767 0.204587 0 0 0 255 
0.133457 -0.0912848 -0.178427 -0.402663 -0.286174 0.868839 0 0 0 255 
-0.0450616 -0.0554523 0.0589979 -0.0513788 -0.951249 0.303422 0 0 0 255 
-0.127603 -0.0502199 -0.314177 0.229318 -0.346789 -0.909326 0 0 0 255 
0.210943 0.11686 -0.25274 0.90878 0.337761 -0.242627 0 0 0 255 
-0.02163 -0.100338 -0.212965 -0.084134 -0.838081 -0.538723 0 0 0 255 
0.23174 0.0214971 -0.213965 0.990908 0.0713126 0.112284 0 0 0 255 
0.106618 -0.0627344 0.171662 0.951405 -0.132264 -0.277484 0 0 0 255 
0.116355 0.219796 -0.25112 0.446238 0.777853 -0.440536 0 0 0 255 
-0.120059 -0.0774156 -0.00450856 0.730053 -0.0617934 0.678343 0 0 0 255 
-0.1398 -0.175816 -0.0522246 -0.410849 -0.874352 0.257283 0 0 0 255 
-0.204946 0.021628 0.06381 -0.789111 -0.509217 0.339921 0 0 0 255 
0.043361 -0.0391855 -0.275915 0.158291 -0.611504 -0.775153 0 0 0 255 
0.139501 0.144873 -0.313732 0.267827 0.476558 -0.836996 0 0 0 255 
0.0969236 0.197622 0.155313 0.543542 0.686631 0.482418 0 0 0 255 
0.190702 0.00324272 0.0619072 0.645639 -0.623818 0.43941 0 0 0 255 
-0.0658992 0.254653 0.0595225 -0.384269 0.900801 0.200314 0 0 0 255 
0.179347 0.141506 0.107019 0.776853 0.575863 0.253388 0 0 0 255 
-0.042291 -0.0606045 0.0386693 -0.00767408 -0.980881 0.193311 0 0 0 255 
-0.0840748 0.232373 0.105082 -0.47253 0.831364 0.292143 0 0 0 255 
-0.206368 0.103099 -0.00495915 -0.753978 0.593676 -0.272282 0 0 0 255 
-0.194057 -0.0919727 -0.305819 -0.415266 0.300898 -0.857902 0 0 0 255 
-0.0192726 0.121706 0.258987 -0.153947 0.467645 0.869836 0 0 0 255 
-0.151525 0.2002 -0.0358724 -0.821803 0.549947 0.145746 0 0 0 255 
0.211329 -0.164678 -0.290488 0.973865 -0.16373 -0.155741 0 0 0 255 
0.149851 -0.166845 -0.20246 -0.0239977 -0.505596 0.861979 0 0 0 255 
0.206749 -0.244043 -0.273663 0.929425 -0.355793 -0.0281488 0 0 0 255 
-0.212651 -0.0245446 0.0131972 -0.634883 -0.477396 0.604053 0 0 0 255 
-0.0292413 0.279334 -0.0323391 -0.154437 0.982221 0.105508 0 0 0 255 
-0.0296923 -0.139575 0.22808 -0.666732 -0.572336 0.46916 0 0 0 255 
0.204074 0.0343032 -0.0647046 0.366638 0.283607 -0.880021 0 0 0 255 
0.195942 -0.254647 -0.252196 0.919125 -0.196194 0.3376 0 0 0 255 
-0.104714 -0.079128 0.208254 -0.940603 -0.248055 0.22881 0 0 0 255 
-0.216526 -0.0873722 -0.18782 -0.903342 0.0141748 0.428563 0 0 0 255 
0.221048 0.0941342 -0.230282 0.966367 0.25047 -0.0567488 0 0 0 255 
0.152952 0.118435 0.169418 0.688084 0.321897 0.649846 0 0 0 255 
-0.125692 0.0987921 0.203055 -0.669549 0.189601 0.718041 0 0 0 255 
0.133385 -0.252841 -0.227853 -0.327384 -0.0778856 0.937517 0 0 0 255 
-0.0426054 0.239134 0.133256 -0.254001 0.885233 0.389074 0 0 0 255 
-0.0424867 0.255386 0.0874059 -0.219318 0.939737 0.261749 0 0 0 255 
0.0312413 0.25171 0.106825 0.161069 0.937394 0.308452 0 0 0 255 
-0.0599266 -0.0633802 0.116614 -0.447378 -0.386259 -0.806318 0 0 0 255 
0.188768 0.137466 0.0540062 0.793983 0.605892 -0.037888 0 0 0 255 
-0.227345 -0.111516 -0.240785 -0.963738 -0.255078 0.0755201 0 0 0 255 
0.140088 -0.0610106 -0.145113 0.71799 -0.656524 0.230454 0 0 0 255 
0.232089 -0.0547581 -0.216282 0.96853 -0.116301 0.219685 0 0 0 255 
-0.210927 0.0696615 -0.0411934 -0.60289 0.526799 -0.590694 0 0 0 255 
0.0881497 -0.018072 0.266832 0.881764 0.119258 0.456132 0 0 0 255 
0.169342 0.184329 -0.0858902 0.870716 0.479377 0.108075 0 0 0 255 
0.0809189 -0.0821484 0.250188 0.765186 -0.286864 0.576345 0 0 0 255 
-0.225814 0.0462466 -0.266448 -0.9549 0.163709 -0.246022 0 0 0 255 
0.235387 -0.0504911 -0.239388 0.9981 -0.0467141 0.0182506 0 0 0 255 
-0.135106 0.00961511 0.139813 -0.550169 -0.738968 0.387959 0 0 0 255 
-0.218788 0.0762185 0.0395014 -0.974289 0.204083 0.0932151 0 0 0 255 
-0.160836 0.163625 -0.286724 -0.534076 0.618966 -0.57554 0 0 0 255 
-0.0855361 -0.0357762 0.278398 -0.801616 -0.594959 0.0169525 0 0 0 255 
-0.0526442 -0.0880098 -0.085153 -0.348678 -0.769633 0.534829 0 0 0 255 
0.024289 0.0153601 -0.312044 0.0763243 -0.33794 -0.937987 0 0 0 255 
0.148716 0.204876 -0.0397095 0.803267 0.579244 0.134951 0 0 0 255 
-0.0265687 -0.182671 0.166603 -0.443323 -0.738866 -0.499384 0 0 0 255 
-0.203556 0.0066427 -0.310248 -0.665293 -0.0883633 -0.740554 0 0 0 255 
-0.120966 0.0317418 -0.334322 0.193725 -0.121261 -0.97346 0 0 0 255 
0.127649 0.186982 0.130713 0.633048 0.669224 0.388149 0 0 0 255 
-0.0503444 0.275945 -0.145912 -0.263703 0.960697 -0.0858784 0 0 0 255 
0.0580089 -0.120554 0.250364 0.565442 -0.764781 0.302088 0 0 0 255 
-0.184288 0.0585835 0.138962 -0.742326 -0.322712 0.585602 0 0 0 255 
-0.0966637 0.257418 -0.0662425 -0.51274 0.856729 0.0489549 0 0 0 255 
-0.0557364 0.179819 0.209566 -0.369404 0.617627 0.693843 0 0 0 255 
-0.0681124 0.112776 0.243485 -0.483639 0.401883 0.777528 0 0 0 255 
0.148788 -0.0481374 -0.13795 0.75398 -0.60914 0.245592 0 0 0 255 
0.0731492 -0.099019 0.142613 0.501149 -0.544414 -0.67199 0 0 0 255 
0.186433 -0.125469 -0.17442 0.304747 -0.590497 0.746819 0 0 0 255 
-0.093012 0.24712 0.0277517 -0.505057 0.850574 0.145478 0 0 0 255 
0.0917252 -0.104062 -0.237579 -0.923677 -0.377509 0.0403389 0 0 0 255 
-0.053619 -0.0570367 0.0519808 -0.0782932 -0.960712 0.265817 0 0 0 255 
-0.1212 -0.0657844 -0.115625 -0.590896 -0.697891 0.404342 0 0 0 255 
0.159871 -0.272516 -0.274951 -0.257932 -0.732601 -0.616733 0 0 0 255 
-0.0968858 0.177878 -0.302161 -0.147019 0.552891 -0.819958 0 0 0 255 
-0.229491 -0.00284102 -0.194293 -0.945942 0.0310527 0.318445 0 0 0 255 
0.132634 0.0282175 0.172113 0.674651 -0.577109 0.459442 0 0 0 255 
0.148294 -0.0107256 -0.081237 0.6579 -0.707916 -0.0869055 0 0 0 255 
0.226122 0.0528398 -0.259662 0.961926 0.174998 -0.208085 0 0 0 255 
-0.111451 -0.210456 -0.24631 0.913647 -0.277239 0.291965 0 0 0 255 
0.183301 0.157913 -0.122356 0.929335 0.367686 -0.0208805 0 0 0 255 
0.211412 -0.0952479 -0.178733 0.818038 -0.098708 0.561185 0 0 0 255 
-0.0884164 -0.0332625 0.285251 -0.580675 -0.807735 0.0796202 0 0 0 255 
-0.172807 0.15747 0.0689355 -0.758952 0.650686 0.0193223 0 0 0 255 
0.22452 -0.0965844 -0.210413 0.945676 -0.17497 0.273322 0 0 0 255 
0.0847325 -0.0870934 -0.225173 -0.6569 -0.745987 0.00916649 0 0 0 255 
-0.0790296 0.256724 -0.195391 -0.418663 0.885526 -0.201242 0 0 0 255 
0.180689 -0.16354 -0.206709 0.371562 -0.610828 0.698435 0 0 0 255 
-0.131357 -0.0524971 -0.0752773 0.598925 0.533066 -0.59596 0 0 0 255 
-0.197379 -0.0668513 -0.299387 -0.539005 -0.0597603 -0.839393 0 0 0 255 
0.180862 0.0631044 -0.0678568 0.977166 -0.115974 0.0980795 0 0 0 255 
-0.216564 -0.0241438 -0.172847 -0.731774 -0.0906638 0.675334 0 0 0 255 
0.0928938 -0.0499749 0.00354673 0.472684 -0.877946 -0.0734346 0 0 0 255 
0.0116886 0.225906 0.169806 0.0489325 0.841258 0.538316 0 0 0 255 
0.0739464 0.0489729 -0.326575 -0.174409 -0.266629 -0.947187 0 0 0 255 
0.12569 -0.0756521 -0.0826498 -0.845881 0.0632087 -0.527844 0 0 0 255 
0.228958 -0.0176396 -0.0363194 0.988659 -0.136772 -0.0491034 0 0 0 255 
0.184239 0.0205971 -0.121436 0.896515 -0.340751 0.282618 0 0 0 255 
0.206531 -0.195238 -0.274242 0.972524 -0.12277 0.193356 0 0 0 255 
0.0934803 -0.0640441 0.145068 0.799708 -0.205006 -0.56359 0 0 0 255 
0.0492721 -0.0695236 -0.246015 0.172015 -0.735438 -0.655166 0 0 0 255 
-0.113304 -0.151169 -0.291492 0.793037 0.0576948 -0.606198 0 0 0 255 
0.0777733 0.266439 -0.0520155 0.421603 0.903725 0.0715241 0 0 0 255 
0.109641 0.0782146 0.22488 0.739714 0.199176 0.642347 0 0 0 255 
0.217586 0.0782446 -0.173288 0.917346 0.153175 0.362737 0 0 0 255 
-0.0461776 -0.12783 0.152379 -0.655247 -0.552794 -0.512223 0 0 0 255 
-0.11862 0.153787 -0.313588 -0.140495 0.469363 -0.871537 0 0 0 255 
-0.207843 -0.166467 -0.242341 -0.88094 -0.364689 0.299227 0 0 0 255 
-0.184835 -0.175147 -0.218088 -0.505045 -0.497357 0.704238 0 0 0 255 
0.160308 0.174582 -0.274121 0.565048 0.652138 -0.504973 0 0 0 255 
-0.146803 -0.114709 -0.177502 0.477672 -0.225782 0.84867 0 0 0 255 
-0.148921 0.155767 0.144416 -0.665563 0.573027 0.477546 0 0 0 255 
-0.135567 -0.0293106 -0.0748305 0.0283417 -0.260863 -0.937024 0 0 0 255 
0.051333 0.0125695 -0.308641 0.00460469 -0.433923 -0.900735 0 0 0 255 
0.135785 0.228727 -0.0967201 0.682313 0.729945 0.0393287 0 0 0 255 
0.07763 0.0360236 0.26818 0.617098 0.152396 0.770496 0 0 0 255 
0.0195338 -0.0623924 0.0270824 0.0242921 -0.997571 0.0636201 0 0 0 255 
-0.13865 0.150902 0.162075 -0.63343 0.524085 0.568785 0 0 0 255 
0.0159724 0.282997 -0.119301 0.0728079 0.997187 -0.0158866 0 0 0 255 
-0.142467 -0.119069 -0.181157 0.460055 -0.245246 0.853156 0 0 0 255 
0.200429 -0.193994 -0.309934 0.826068 -0.15249 -0.540883 0 0 0 255 
-0.180882 0.113968 -0.0194614 -0.465777 0.660952 -0.586665 0 0 0 255 
0.104234 0.0797555 0.230384 0.704387 0.248829 0.664507 0 0 0 255 
0.0488685 -0.136001 0.163247 0.877404 -0.261923 -0.401015 0 0 0 255 
-0.099331 -0.0148471 -0.317594 0.377274 -0.2839 -0.881482 0 0 0 255 
-0.175482 0.156115 -0.0547347 -0.945703 0.245218 0.210735 0 0 0 255 
-0.190911 0.165118 -0.183512 -0.8525 0.489868 0.180481 0 0 0 255 
0.172079 -0.0545845 -0.1593 0.0502754 -0.238035 0.969356 0 0 0 255 
0.160799 -0.205492 -0.319265 -0.0640435 -0.547402 -0.834325 0 0 0 255 
-0.124164 -0.153881 -0.0298775 0.618489 -0.263714 0.739068 0 0 0 255 
-0.181429 0.162863 -0.105296 -0.927797 0.368133 0.0483538 0 0 0 255 
-0.0264417 -0.0657969 -0.254971 -0.1099 -0.714485 -0.690845 0 0 0 255 
-0.141775 0.136698 0.17027 -0.648298 0.441278 0.6201 0 0 0 255 
0.153212 -0.243016 -0.226455 0.0928201 0.145032 0.982931 0 0 0 255 
-0.174653 -0.0672427 -0.308929 -0.220346 -0.182995 -0.957646 0 0 0 255 
-0.205605 -0.22405 -0.29309 -0.897946 -0.132794 -0.416871 0 0 0 255 
-0.204663 0.114459 -0.164165 -0.888995 0.261737 0.374877 0 0 0 255 
0.117027 -0.0895923 -0.29043 -0.470532 -0.404182 -0.783989 0 0 0 255 
-0.0427024 -0.125547 0.146375 -0.545459 -0.564849 -0.617313 0 0 0 255 
-0.0969518 -0.0217427 0.122556 -0.61134 -0.785586 0.0534325 0 0 0 255 
0.19688 0.0249151 -0.070439 0.249237 0.293906 -0.92174 0 0 0 255 
0.0658825 -0.124971 0.191988 0.471061 -0.881001 0.00521979 0 0 0 255 
-0.123704 -0.0900358 -0.29379 0.41989 -0.366334 -0.829838 0 0 0 255 
-0.158375 0.137449 -0.310109 -0.429614 0.474092 -0.767684 0 0 0 255 
-0.127356 -0.0966899 -0.00377828 0.556366 -0.262846 0.786841 0 0 0 255 
0.154188 -0.0618748 -0.313194 0.034577 -0.313526 -0.948605 0 0 0 255 
0.139024 0.16133 -0.30307 0.325962 0.569825 -0.753534 0 0 0 255 
0.127439 0.203399 0.0929374 0.687189 0.687522 0.233976 0 0 0 255 
-0.174747 0.175334 -0.252751 -0.671837 0.632759 -0.384672 0 0 0 255 
-0.156148 0.0226243 0.132452 -0.53142 -0.698642 0.477783 0 0 0 255 
0.16752 0.166781 -0.0346939 0.926618 0.312902 0.20743 0 0 0 255 
0.0978827 -0.0404748 -0.307156 -0.431947 -0.376723 -0.819354 0 0 0 255 
0.186389 -0.0931147 -0.0157767 0.609483 -0.439193 0.659421 0 0 0 255 
-0.0625222 -0.107137 -0.138618 -0.314433 -0.937457 0.146999 0 0 0 255 
0.193593 0.0299132 0.0977713 0.685877 -0.582334 0.434026 0 0 0 255 
-0.000370408 -0.133009 0.266036 -0.00257266 -0.805183 0.592932 0 0 0 255 
-0.0923562 -0.103799 0.175601 -0.722807 -0.668164 -0.174121 0 0 0 255 
-0.0974134 -0.0201632 0.246641 -0.917233 -0.105868 0.383827 0 0 0 255 
-0.107914 -0.0121104 0.158604 -0.931338 -0.341173 -0.118745 0 0 0 255 
-0.117461 -0.00546242 -0.326651 0.257451 -0.247235 -0.933929 0 0 0 255 
-0.0456586 0.204095 0.191201 -0.271612 0.735114 0.619764 0 0 0 255 
-0.170931 0.023244 0.117134 -0.529586 -0.716185 0.454417 0 0 0 255 
-0.204709 0.0432312 -0.308837 -0.728852 0.138794 -0.669504 0 0 0 255 
0.190999 -0.222052 -0.245825 0.593765 0.25262 0.763744 0 0 0 255 
0.205311 0.141856 -0.2271 0.906177 0.414408 -0.081651 0 0 0 255 
-0.109079 -0.118106 -0.280433 0.80211 0.169576 -0.571861 0 0 0 255 
-0.0160237 0.282595 -0.0605879 -0.0680278 0.9971 0.0319529 0 0 0 255 
0.120143 -0.0975729 -0.0780143 -0.903355 -0.191771 -0.375161 0 0 0 255 
-0.0927953 0.102419 0.231109 -0.593198 0.34865 0.725463 0 0 0 255 
0.0938925 -0.0924032 -0.197427 0.130949 -0.977998 -0.152715 0 0 0 255 
0.172417 0.151731 0.1034 0.754531 0.618773 0.217219 0 0 0 255 
-0.0359717 -0.0543862 -0.26445 -0.142473 -0.672299 -0.726318 0 0 0 255 
-0.184555 0.0393237 -0.101451 -0.918504 -0.286087 0.272401 0 0 0 255 
0.0407679 -0.102349 -0.204864 0.166196 -0.870198 -0.46337 0 0 0 255 
0.221423 0.0796078 -0.186967 0.958085 0.187309 0.214125 0 0 0 255 
-0.0819975 -0.112307 0.175269 -0.560686 -0.793065 -0.237273 0 0 0 255 
-0.0586273 0.0581567 -0.326122 0.162015 -0.179257 -0.970208 0 0 0 255 
-0.203743 0.137099 -0.248079 -0.864162 0.430242 -0.260539 0 0 0 255 
0.18086 0.131826 0.120398 0.782916 0.50528 0.362389 0 0 0 255 
-0.0622189 0.208026 0.175683 -0.410002 0.754534 0.511972 0 0 0 255 
-0.025597 0.0264072 0.302954 -0.261801 0.463012 0.845171 0 0 0 255 
0.0377727 -0.0626558 0.0251019 -0.0316559 -0.992915 0.111921 0 0 0 255 
-0.120749 0.216431 0.0731945 -0.654576 0.725317 0.212098 0 0 0 255 
-0.178629 0.178498 -0.168006 -0.806984 0.544409 0.227317 0 0 0 255 
0.161944 -0.124377 -0.113534 0.38708 -0.132442 -0.910319 0 0 0 255 
0.109995 0.206479 0.122796 0.591173 0.722016 0.358806 0 0 0 255 
0.0708426 -0.095341 -0.109589 0.393532 -0.82283 0.409307 0 0 0 255 
-0.173242 -0.122248 -0.320812 0.00434278 0.25584 -0.966182 0 0 0 255 
-0.202137 0.0288856 -0.312897 -0.677092 0.0168104 -0.734834 0 0 0 255 
-0.221742 -0.0031612 -0.178296 -0.82967 0.00999208 0.555604 0 0 0 255 
0.047597 -0.147241 0.17162 0.933027 -0.305037 -0.189716 0 0 0 255 
0.12242 -0.184817 -0.0698368 0.0336429 -0.989628 0.109916 0 0 0 255 
-0.173365 -0.254992 -0.230681 -0.31835 -0.0549605 0.944618 0 0 0 255 
0.121421 -0.071203 -0.076374 -0.861624 -0.0154903 -0.503469 0 0 0 255 
0.0729759 -0.0436508 0.304295 0.665525 -0.742093 -0.0538911 0 0 0 255 
0.108107 0.240446 -0.000391673 0.600055 0.796 0.0770209 0 0 0 255 
-0.167179 -0.0165934 -0.12555 -0.81609 -0.502937 0.284335 0 0 0 255 
0.150419 0.050138 -0.336834 0.125335 0.0101959 -0.991209 0 0 0 255 
0.0713502 -0.0586931 -0.270412 -0.686353 -0.563683 -0.458915 0 0 0 255 
0.10052 -0.0895389 -0.136971 0.475948 -0.837569 0.267273 0 0 0 255 
-0.0333484 0.19294 0.206738 -0.198281 0.674555 0.710757 0 0 0 255 
0.174764 0.0821058 -0.324033 0.488505 0.241674 -0.837271 0 0 0 255 
-0.196985 0.0867873 -0.0376653 -0.382109 0.585512 -0.713835 0 0 0 255 
-0.117451 -0.103444 -0.191611 0.578792 -0.208994 0.786954 0 0 0 255 
0.188216 -0.0809965 -0.00926937 0.553309 -0.471309 0.686148 0 0 0 255 
-0.0371384 -0.176714 0.184803 -0.74087 -0.663588 0.0974168 0 0 0 255 
-0.132595 0.0357059 -0.336437 0.0895522 -0.0915508 -0.991227 0 0 0 255 
0.017756 -0.0117346 0.315972 0.123704 0.114734 0.985568 0 0 0 255 
-0.0604339 0.160297 0.22233 -0.420154 0.493468 0.76079 0 0 0 255 
0.00610028 0.276716 -0.200639 0.074782 0.995777 -0.0509082 0 0 0 255 
-0.234289 -0.00672877 -0.220672 -0.996508 0.0467125 0.0687802 0 0 0 255 
-0.12514 0.238264 -0.110514 -0.615919 0.787652 -0.00347378 0 0 0 255 
-0.218211 -0.0189464 -0.0696165 -0.750597 0.0729919 -0.650728 0 0 0 255 
0.0420792 0.277483 -0.0391565 0.224572 0.969068 0.0990547 0 0 0 255 
-0.183812 -0.121808 -0.0375728 -0.770002 -0.515413 0.374741 0 0 0 255 
0.220159 -0.0573534 -0.186277 0.82988 -0.229642 0.506664 0 0 0 255 
0.158748 0.199553 -0.0766318 0.819365 0.560783 0.113496 0 0 0 255 
-0.165325 -0.258168 -0.228578 -0.326214 -0.135444 0.935437 0 0 0 255 
-0.166561 0.161506 -0.28327 -0.591182 0.605274 -0.532738 0 0 0 255 
0.0711792 -0.060097 -0.0420527 0.268746 -0.94792 0.167733 0 0 0 255 
0.0379664 0.167923 0.226612 0.250063 0.57207 0.780626 0 0 0 255 
0.0514179 0.215731 -0.302564 0.715423 -0.012704 -0.697566 0 0 0 255 
0.21508 -0.00669262 -0.170065 0.723451 -0.020468 0.688558 0 0 0 255 
-0.0144226 0.0629926 0.286342 -0.0797614 0.402326 0.911596 0 0 0 255 
-0.229028 -0.0829237 -0.261317 -0.946973 0.0161119 -0.31748 0 0 0 255 
0.09979 0.221661 -0.263237 0.435634 0.698206 -0.566838 0 0 0 255 
0.0746328 -0.037745 0.094384 0.241465 -0.919425 0.302115 0 0 0 255 
-0.100298 -0.0210747 0.116204 -0.447742 -0.850274 0.270162 0 0 0 255 
0.107896 0.2455 -0.0351663 0.603002 0.78563 0.137158 0 0 0 255 
0.0403126 -0.106001 0.129891 0.349438 -0.491145 -0.797725 0 0 0 255 
0.166467 -0.0105098 -0.0810234 -0.111841 0.222984 -0.968102 0 0 0 255 
-0.193113 0.100001 -0.10315 -0.981119 0.0373557 0.189271 0 0 0 255 
0.105562 -0.177045 -0.0686067 -0.723717 -0.64741 0.193725 0 0 0 255 
0.117496 0.153332 0.181254 0.587736 0.506389 0.630787 0 0 0 255 
-0.0357458 0.132063 0.249041 -0.282593 0.463073 0.839711 0 0 0 255 
0.111195 0.248028 -0.0756259 0.601991 0.797347 0.0380339 0 0 0 255 
0.0190954 0.10417 -0.321191 -0.164004 0.0905531 -0.982197 0 0 0 255 
0.0119919 -0.0740918 -0.0447254 0.10104 -0.875767 0.471455 0 0 0 255 
0.0783475 -0.102847 -0.151326 0.349172 -0.932581 0.0876852 0 0 0 255 
-0.145671 -0.175495 -0.0772397 -0.462806 -0.88192 -0.085125 0 0 0 255 
-0.212339 -0.0556079 -0.0137083 -0.751976 -0.475537 0.455024 0 0 0 255 
0.0889136 -0.0364904 0.0881865 0.281152 -0.884744 0.369748 0 0 0 255 
0.220433 0.0152123 0.0303453 0.833248 -0.275823 0.477047 0 0 0 255 
-0.189817 0.11766 -0.00831734 -0.516918 0.718006 -0.454182 0 0 0 255 
-0.107717 -0.1108 -0.276968 0.797485 0.0486358 -0.600501 0 0 0 255 
-0.0992981 -0.0709172 -0.290443 0.532576 -0.485047 -0.693387 0 0 0 255 
-0.0679226 0.151292 -0.318438 -0.0172873 0.329509 -0.943975 0 0 0 255 
0.0131355 -0.0388277 -0.281636 0.0705638 -0.63804 -0.766741 0 0 0 255 
0.0267133 0.120494 -0.320794 -0.188124 0.126951 -0.973878 0 0 0 255 
0.128505 -0.222443 -0.290991 -0.498737 -0.648772 -0.572749 0 0 0 255 
-0.180781 -0.114712 -0.100845 -0.787849 -0.218328 -0.573243 0 0 0 255 
0.197561 0.0824793 -0.129407 0.985663 0.0145982 0.165029 0 0 0 255 
0.191837 -0.114606 -0.0717892 0.886865 -0.436374 -0.149353 0 0 0 255 
-0.0708208 -0.0591854 0.0030868 -0.289073 -0.956286 -0.0350629 0 0 0 255 
0.0265759 -0.169767 0.157942 0.67229 -0.515806 -0.524228 0 0 0 255 
-0.153003 -0.156838 -0.0325284 -0.523852 -0.621428 0.581252 0 0 0 255 
0.211884 0.083974 0.0853247 0.967113 0.160352 0.192324 0 0 0 255 
0.172944 -0.129791 -0.175075 0.00390161 -0.573571 0.817763 0 0 0 255 
0.127384 -0.265456 -0.24068 -0.815856 -0.423168 0.386757 0 0 0 255 
0.230912 0.0430601 -0.229728 0.993257 0.112395 -0.0117672 0 0 0 255 
-0.083257 0.212921 0.147706 -0.50003 0.742114 0.446147 0 0 0 255 
0.0235803 0.281136 -0.145285 0.116985 0.990511 -0.0713863 0 0 0 255 
-0.0188766 -0.150579 0.231092 -0.530675 -0.523985 0.662248 0 0 0 255 
0.206313 -0.234255 -0.285026 0.892354 -0.27927 -0.349919 0 0 0 255 
-0.207288 -0.083954 -0.0465584 -0.889947 -0.444651 0.0966863 0 0 0 255 
-0.0823404 -0.0612858 -0.282181 0.645349 -0.502407 -0.574824 0 0 0 255 
-0.032118 -0.178936 0.195689 -0.648398 -0.687665 0.325479 0 0 0 255 
-0.0408447 -0.0639645 -0.254133 -0.14805 -0.70831 -0.690091 0 0 0 255 
-0.103145 -0.158656 -0.0922446 0.912336 -0.116841 -0.169302 0 0 0 255 
-0.195591 -0.202394 -0.313745 -0.678421 -0.215805 -0.701125 0 0 0 255 
0.113647 0.0889532 -0.334031 -0.0370237 0.139381 -0.989353 0 0 0 255 
0.153838 -0.0315826 -0.117737 0.757228 -0.559672 0.336517 0 0 0 255 
0.0989964 0.234035 0.0685925 0.536653 0.814654 0.219343 0 0 0 255 
0.0688304 0.269384 -0.148149 0.375189 0.921404 -0.100313 0 0 0 255 
0.0662374 0.199028 0.184358 0.47518 0.670256 0.568943 0 0 0 255 
0.0176543 -0.0819986 -0.0589662 0.147492 -0.829477 0.538672 0 0 0 255 
0.0400418 -0.120496 0.140076 0.443228 -0.564171 -0.695341 0 0 0 255 
0.232564 0.0110003 -0.214237 0.991696 0.070279 0.10627 0 0 0 255 
-0.210882 0.106326 -0.173501 -0.90553 0.27263 0.323123 0 0 0 255 
0.232621 -0.0188165 -0.262439 0.964032 0.0249369 -0.261901 0 0 0 255 
-0.224939 -0.114284 -0.270846 -0.963773 -0.17371 -0.200188 0 0 0 255 
0.142785 -0.0998409 -0.107782 -0.528855 0.252392 -0.809168 0 0 0 255 
-0.1854 0.171096 -0.23807 -0.753134 0.599017 -0.271042 0 0 0 255 
-0.209265 0.132972 -0.225717 -0.928057 0.367291 -0.0546026 0 0 0 255 
-0.0802797 0.261906 -0.0275227 -0.448602 0.88028 0.153205 0 0 0 255 
-0.085842 -0.0516986 0.0354815 -0.385026 -0.916046 0.111374 0 0 0 255 
0.200974 -0.0273416 -0.0836403 0.458082 0.181123 -0.868456 0 0 0 255 
0.0189705 0.0318358 0.301476 0.170489 0.488297 0.854721 0 0 0 255 
-0.227387 0.0684605 -0.222254 -0.982266 0.186483 -0.00449199 0 0 0 255 
0.099714 -0.0559143 -0.0719421 0.50983 -0.783165 0.354797 0 0 0 255 
-0.0242728 0.111508 -0.321377 0.185738 0.105039 -0.976941 0 0 0 255 
0.0939474 -0.0997806 -0.220049 -0.876571 -0.324106 0.353151 0 0 0 255 
-0.198799 -0.116826 -0.175451 -0.56184 -0.486177 0.665831 0 0 0 255 
-0.147872 -0.00860809 0.0864147 -0.42454 -0.784713 0.450584 0 0 0 255 
0.0283388 0.281671 -0.073292 0.12949 0.991366 0.0170865 0 0 0 255 
-0.111577 0.106583 -0.330801 0.000671923 0.213046 -0.976896 0 0 0 255 
-0.0715728 0.253184 -0.225859 -0.384631 0.901904 -0.196499 0 0 0 255 
0.166068 -0.117188 -0.112358 0.423118 -0.0399454 -0.904441 0 0 0 255 
0.147324 0.192329 0.0393938 0.83753 0.53607 0.10403 0 0 0 255 
-0.16649 0.143214 -0.0053316 -0.938644 0.232071 -0.0407345 0 0 0 255 
-0.00692446 -0.106026 -0.205167 -0.01754 -0.88126 -0.471437 0 0 0 255 
-0.0952113 0.0305625 0.252621 -0.747718 0.0583024 0.660829 0 0 0 255 
0.190445 0.122222 -0.0980141 0.976577 0.110211 0.183268 0 0 0 255 
-0.0629104 -0.0705975 0.285309 -0.736789 -0.396478 0.547352 0 0 0 255 
0.207915 -0.185257 -0.291555 0.982522 -0.110348 -0.14768 0 0 0 255 
0.128296 -0.0467431 0.0265558 -0.0129895 -0.962958 0.266841 0 0 0 255 
0.161274 -0.20971 -0.230462 0.342058 -0.437265 0.828879 0 0 0 255 
-0.203618 0.0165308 0.0588931 -0.75854 -0.52737 0.380828 0 0 0 255 
0.206145 -0.0185238 0.0233584 0.512421 -0.538593 0.668556 0 0 0 255 
-0.114442 0.134201 -0.322773 -0.0652714 0.34452 -0.93635 0 0 0 255 
-0.119128 0.0240442 0.20044 -0.934823 -0.300581 0.185392 0 0 0 255 
-0.187778 0.0603971 -0.0934595 -0.94289 -0.200914 0.265225 0 0 0 255 
-0.0962383 -0.0847233 0.159108 -0.833793 -0.331518 -0.440572 0 0 0 255 
0.131972 -0.0726367 -0.156258 0.594743 -0.75184 0.253881 0 0 0 255 
0.00816966 -0.112784 -0.116786 0.0490944 -0.967067 0.24794 0 0 0 255 
0.118332 -0.0908808 -0.0754243 -0.937725 0.00578536 -0.333878 0 0 0 255 
-0.189696 0.158456 -0.250921 -0.761005 0.55051 -0.342866 0 0 0 255 
-0.012065 0.156954 0.239905 -0.101846 0.533624 0.839027 0 0 0 255 
-0.013285 0.249174 0.121354 -0.0981876 0.934815 0.340663 0 0 0 255 
0.108423 -0.0156325 0.201484 0.995765 -0.0579477 0.0646002 0 0 0 255 
0.0728683 -0.0718962 0.268179 0.823186 -0.325549 0.465134 0 0 0 255 
0.0994813 -0.0102584 0.244323 0.897805 -0.100458 0.428617 0 0 0 255 
0.0384611 -0.0207871 -0.2905 0.18655 -0.550807 -0.813462 0 0 0 255 
-0.0216872 0.274746 0.00752583 -0.137643 0.977141 0.161489 0 0 0 255 
-0.221284 0.0376374 -0.178157 -0.880627 -0.0438776 0.46975 0 0 0 255 
0.0516912 0.275912 -0.0489144 0.272426 0.959108 0.0737282 0 0 0 255 
0.0545606 -0.108274 -0.131388 0.269853 -0.943707 0.189907 0 0 0 255 
-0.174991 -0.105739 -0.0142632 -0.513917 -0.422907 0.745859 0 0 0 255 
-0.193437 0.112467 -0.012043 -0.546092 0.68878 -0.46522 0 0 0 255 
0.182889 0.0608391 -0.0767789 0.948444 -0.153382 0.276464 0 0 0 255 
0.164168 0.192932 -0.238576 0.63415 0.70997 -0.305301 0 0 0 255 
0.0688762 -0.115256 0.159874 0.447143 -0.837301 -0.313671 0 0 0 255 
-0.0129709 0.197809 0.205672 -0.0687412 0.727048 0.683042 0 0 0 255 
-0.224213 0.0366817 -0.277352 -0.937765 0.140269 -0.317192 0 0 0 255 
-0.138016 -0.225532 -0.228112 0.0902624 0.061601 0.992972 0 0 0 255 
-0.0445782 -0.16127 0.175668 -0.947305 -0.262786 -0.182776 0 0 0 255 
0.216582 -0.0339264 -0.174642 0.736123 -0.128956 0.663528 0 0 0 255 
-0.00950959 0.111154 -0.319075 0.100593 0.110632 -0.988526 0 0 0 255 
-0.0258282 0.282198 -0.0983056 -0.115166 0.993283 0.00165492 0 0 0 255 
-0.184647 -0.0308876 -0.0894844 -0.0292287 0.252373 -0.963264 0 0 0 255 
-0.0896322 0.26129 -0.124402 -0.489606 0.87058 -0.0456381 0 0 0 255 
-0.127245 0.224397 -0.00427585 -0.701031 0.709521 0.0691312 0 0 0 255 
-0.106297 0.0544859 -0.334167 0.18743 -0.0996883 -0.977164 0 0 0 255 
-0.0984822 -0.0404643 0.0681214 -0.374298 -0.886019 0.271091 0 0 0 255 
0.174709 -0.0582964 0.0133912 0.328445 -0.52098 0.787634 0 0 0 255 
0.101571 0.236621 0.0518619 0.542063 0.817061 0.195567 0 0 0 255 
-0.0554949 0.210214 0.177449 -0.357859 0.774369 0.521375 0 0 0 255 
0.0871225 0.100267 -0.33097 -0.0739356 0.122825 -0.989579 0 0 0 255 
-0.122521 -0.0941849 -0.0833587 0.8488 -0.03022 -0.525497 0 0 0 255 
-0.184831 -0.245128 -0.29593 -0.134177 -0.15222 -0.957123 0 0 0 255 
0.199783 -0.00639428 -0.311338 0.606644 -0.134 -0.782797 0 0 0 255 
-0.0126082 0.232692 0.158338 -0.0581471 0.871939 0.485311 0 0 0 255 
-0.181605 0.017736 0.0964328 -0.540166 -0.706731 0.456196 0 0 0 255 
-0.186443 0.0642228 -0.0861657 -0.941266 -0.182725 0.283721 0 0 0 255 
-0.18626 0.0790828 0.142451 -0.784264 -0.0275229 0.618952 0 0 0 255 
0.0986352 -0.0270283 0.240962 0.926013 -0.127089 0.355446 0 0 0 255 
-0.144064 -0.0255501 -0.0769105 0.335493 0.021753 -0.940263 0 0 0 255 
0.128813 -0.082393 -0.299882 -0.325639 -0.427983 -0.843008 0 0 0 255 
-0.181324 0.119044 0.133515 -0.778119 0.405351 0.478673 0 0 0 255 
-0.191966 0.0562176 -0.112618 -0.955009 -0.188114 0.228014 0 0 0 255 
-0.132011 -0.0171681 0.0873829 -0.45289 -0.807582 0.377663 0 0 0 255 
-0.104226 -0.0439574 -0.0123765 0.35649 -0.90398 -0.185741 0 0 0 255 
-0.033722 0.0366644 0.294745 -0.322563 0.409152 0.852798 0 0 0 255 
0.224717 -0.0901592 -0.207611 0.938556 -0.122717 0.32182 0 0 0 255 
0.111011 -0.112207 -0.281483 -0.759138 0.141245 -0.63478 0 0 0 255 
0.0604676 -0.121581 0.227091 0.554488 -0.738666 0.382577 0 0 0 255 
0.157761 -0.0435765 -0.318823 0.0979023 -0.294753 -0.950289 0 0 0 255 
-0.0593049 -0.0547921 0.0577173 -0.117911 -0.94847 0.293186 0 0 0 255 
-0.0285501 0.280493 -0.145611 -0.142273 0.986946 -0.0745711 0 0 0 255 
0.189144 -0.121466 -0.0609197 0.873155 -0.487163 0.00592326 0 0 0 255 
-0.208403 -0.0827387 -0.059361 -0.915436 -0.401427 -0.018972 0 0 0 255 
0.208173 -0.136603 -0.204934 0.752809 -0.476343 0.451873 0 0 0 255 
0.154842 0.189752 -0.0184387 0.87743 0.464671 0.11372 0 0 0 255 
0.0141524 0.0667516 0.284715 0.0775094 0.389906 0.917224 0 0 0 255 
0.108445 0.0932497 0.220935 0.674527 0.257143 0.691689 0 0 0 255 
-0.144967 0.180786 0.107737 -0.697175 0.672136 0.247177 0 0 0 255 
-0.0246696 0.0435449 -0.319528 0.0355918 -0.1819 -0.982516 0 0 0 255 
-0.0974234 0.0229805 -0.326276 0.33618 -0.182131 -0.923959 0 0 0 255 
-0.152239 -0.231622 -0.29642 0.489025 -0.324093 -0.806143 0 0 0 255 
0.230263 0.0376607 -0.210124 0.990048 0.0616431 0.12552 0 0 0 255 
-0.0988784 -0.0441627 -0.0167655 -0.526218 -0.84049 -0.066324 0 0 0 255 
-0.218324 0.0608584 0.0581876 -0.985409 -0.00756213 0.166263 0 0 0 255 
-0.00103092 -0.062634 0.030986 -0.00266344 -0.998558 0.0509281 0 0 0 255 
-0.0161875 0.115956 -0.319404 0.154654 0.115295 -0.981201 0 0 0 255 
0.101709 -0.110997 -0.210962 -0.833239 -0.244249 0.492694 0 0 0 255 
0.134612 -0.181523 -0.212212 -0.279238 -0.422269 0.860646 0 0 0 255 
-0.143905 -0.0526023 -0.133927 -0.736276 -0.623229 0.262498 0 0 0 255 
0.136863 -0.169545 -0.102555 0.310519 -0.706688 -0.633154 0 0 0 255 
-0.116202 -0.0440136 0.0333677 0.0149223 -0.952325 0.302935 0 0 0 255 
-0.190005 0.083943 -0.0895649 -0.963325 -0.0473804 0.262206 0 0 0 255 
-0.11203 -0.0614774 -0.0177066 0.905644 -0.00960985 0.422351 0 0 0 255 
0.13901 0.00804755 0.130221 0.565541 -0.744646 0.354293 0 0 0 255 
0.180322 0.0720582 0.148538 0.752682 -0.129102 0.64395 0 0 0 255 
-0.166105 -0.111858 -0.11227 -0.358397 0.0424075 -0.931137 0 0 0 255 
0.105263 -0.0819905 0.185496 0.94783 -0.299255 -0.105415 0 0 0 255 
-0.17409 -0.24459 -0.295402 0.378531 -0.0689183 -0.889418 0 0 0 255 
-0.148681 0.0781541 0.182571 -0.706032 -0.0649872 0.704652 0 0 0 255 
0.14345 0.221504 -0.105649 0.720092 0.693367 0.0173458 0 0 0 255 
-0.010804 0.264143 0.0712771 -0.068842 0.972661 0.220964 0 0 0 255 
0.0685808 0.246294 -0.258071 0.513798 0.804187 -0.298103 0 0 0 255 
0.027205 -0.0677556 -0.0366363 0.16345 -0.94209 0.287055 0 0 0 255 
-0.144808 0.112757 0.180512 -0.679533 0.275529 0.679636 0 0 0 255 
0.129339 -0.142854 -0.195363 -0.443992 -0.337654 0.828723 0 0 0 255 
-0.232474 -0.0795442 -0.246889 -0.987809 -0.0896274 -0.116361 0 0 0 255 
-0.0987122 0.00961582 -0.323976 0.357933 -0.205978 -0.910665 0 0 0 255 
-0.0284874 -0.164861 0.153903 -0.712451 -0.541167 -0.443751 0 0 0 255 
-0.161111 -0.155602 -0.329101 0.187606 0.249998 -0.948805 0 0 0 255 
-0.00187757 0.0245859 -0.315525 -0.0035808 -0.23196 -0.972571 0 0 0 255 
0.00422061 0.275055 -0.248312 0.0468815 0.994036 -0.0964612 0 0 0 255 
-0.0733558 -0.0148888 -0.30353 0.510868 -0.341849 -0.788713 0 0 0 255 
0.230947 0.018328 -0.0259919 0.99968 0.00701276 0.0102213 0 0 0 255 
-0.167399 0.163268 0.0533533 -0.770195 0.636111 -0.04242 0 0 0 255 
-0.107084 0.184688 -0.294902 -0.190944 0.621543 -0.759648 0 0 0 255 
-0.0650208 0.248387 -0.258442 -0.527045 0.808334 -0.261279 0 0 0 255 
0.192208 -0.213001 -0.312588 0.563704 -0.350092 -0.744265 0 0 0 255 
-0.126188 -0.235227 -0.276853 0.600745 -0.332655 -0.724071 0 0 0 255 
-0.0908673 -0.00914189 0.293853 -0.231278 0.912348 -0.336363 0 0 0 255 
-0.0460604 -0.137683 0.203139 -0.820489 -0.432723 0.362954 0 0 0 255 
0.027241 -0.114948 -0.13915 0.139666 -0.984033 0.109863 0 0 0 255 
-0.0582689 0.0776967 -0.328217 0.154145 -0.0501446 -0.98674 0 0 0 255 
0.0383515 0.279936 -0.0669745 0.189732 0.981421 0.0263316 0 0 0 255 
-0.0601993 0.038887 0.280067 -0.52382 0.229803 0.819706 0 0 0 255 
0.216519 0.110266 -0.208483 0.95645 0.283507 0.0659535 0 0 0 255 
0.13235 0.226132 -0.195346 0.554744 0.828066 -0.0756794 0 0 0 255 
0.0438 0.101783 -0.325901 -0.16207 0.061142 -0.984743 0 0 0 255 
-0.0807354 -0.0962801 -0.12433 -0.437315 -0.853014 0.283396 0 0 0 255 
-0.0169356 0.0987294 0.271131 -0.116591 0.424501 0.89784 0 0 0 255 
0.0888623 -0.0512548 -0.00489377 0.482214 -0.872399 -0.0645705 0 0 0 255 
-0.131154 -0.0785395 -0.17041 -0.162828 -0.786192 0.580518 0 0 0 255 
-0.171859 -0.0315695 -0.319551 -0.273542 -0.255323 -0.926964 0 0 0 255 
0.167856 -0.00389948 -0.108584 0.817213 -0.465932 0.339043 0 0 0 255 
0.094302 -0.0167332 0.331459 0.136403 0.667523 0.731039 0 0 0 255 
-0.0525702 0.116641 -0.325682 0.123701 0.134851 -0.983004 0 0 0 255 
-0.210706 0.00737616 -0.0695669 -0.502503 0.238571 -0.829425 0 0 0 255 
0.0208068 -0.00818941 -0.301817 0.12747 -0.474698 -0.870785 0 0 0 255 
-0.170777 -0.00399446 -0.326988 -0.294677 -0.209611 -0.932222 0 0 0 255 
-0.231513 -0.0648741 -0.218853 -0.965357 -0.111924 0.23453 0 0 0 255 
-0.235053 -0.0575896 -0.243716 -0.996054 -0.0781899 -0.036009 0 0 0 255 
-0.0847944 0.0633424 0.255016 -0.609166 0.266256 0.746643 0 0 0 255 
0.222701 -0.027545 -0.00607494 0.874117 -0.33873 0.347133 0 0 0 255 
0.191778 0.151544 -0.256557 0.771161 0.523821 -0.360962 0 0 0 255 
-0.110717 -0.00279902 0.201375 -0.964258 -0.260118 0.0471781 0 0 0 255 
0.100792 0.0818586 -0.333868 -0.0968639 0.0631637 -0.993157 0 0 0 255 
-0.16015 -0.0319988 -0.13507 -0.786695 -0.557702 0.264273 0 0 0 255 
-0.221754 0.0643124 -0.0291067 -0.847752 0.432225 -0.293286 0 0 0 255 
0.108622 0.248837 -0.13237 0.548649 0.833747 -0.0614925 0 0 0 255 
-0.172868 0.00944637 -0.0768895 -0.118776 0.139094 -0.976552 0 0 0 255 
-0.0915272 -0.0533088 0.138818 -0.776033 -0.129016 -0.616524 0 0 0 255 
0.0100622 -0.0664461 -0.0208413 0.045665 -0.986451 0.156401 0 0 0 255 
0.221562 0.0854728 -0.194265 0.964175 0.211971 0.157188 0 0 0 255 
0.0211085 -0.101166 -0.0898378 0.16371 -0.86491 0.473441 0 0 0 255 
-0.0987135 0.22129 -0.264544 -0.43505 0.687976 -0.579127 0 0 0 255 
-0.03929 0.278576 -0.146145 -0.202647 0.975714 -0.0820777 0 0 0 255 
0.21957 -0.137056 -0.250197 0.946963 -0.320328 0.017426 0 0 0 255 
0.0675828 0.271821 -0.087648 0.361669 0.9321 0.0159388 0 0 0 255 
-0.105854 0.237811 0.0335161 -0.564062 0.81137 0.151789 0 0 0 255 
0.235496 -0.0328799 -0.246428 0.997038 0.00840484 -0.065963 0 0 0 255 
-0.0614653 0.250255 0.0840419 -0.364363 0.895443 0.254321 0 0 0 255 
0.193642 0.124836 -0.137504 0.970982 0.213249 0.103344 0 0 0 255 
-0.0239058 -0.114292 -0.179232 -0.10249 -0.973158 -0.205065 0 0 0 255 
-0.0213296 0.154091 0.240192 -0.169953 0.51885 0.83756 0 0 0 255 
0.0901315 0.181933 0.181266 0.547353 0.600656 0.582708 0 0 0 255 
-0.0653694 0.272166 -0.0607138 -0.349034 0.936331 0.0361791 0 0 0 255 
0.190804 0.132196 0.0865215 0.824078 0.551604 0.127622 0 0 0 255 
0.143754 0.210635 -0.0359814 0.781604 0.609338 0.129297 0 0 0 255 
0.0852745 -0.100475 -0.154334 0.373445 -0.923651 0.0773839 0 0 0 255 
-0.163748 -0.0325049 0.0416924 -0.369852 -0.777537 0.507952 0 0 0 255 
0.085032 0.263941 -0.1194 0.463775 0.885201 -0.0324636 0 0 0 255 
-0.114132 -0.0922969 -0.0429702 0.902538 -0.426241 -0.0534061 0 0 0 255 
-0.0148026 -0.0536732 0.316393 -0.0849502 -0.167519 0.981956 0 0 0 255 
0.0991754 -0.103945 -0.211767 -0.847919 -0.230784 0.476126 0 0 0 255 
0.113551 -0.111832 -0.197081 -0.638829 -0.243495 0.728487 0 0 0 255 
0.092151 0.2508 0.00355891 0.509306 0.855558 0.0922612 0 0 0 255 
0.167771 0.0138839 0.104896 0.484512 -0.75245 0.445937 0 0 0 255 
0.116916 -0.237507 -0.252622 -0.990297 -0.129982 -0.0101335 0 0 0 255 
0.0988909 0.0680512 -0.33389 -0.144907 -0.0373932 -0.988643 0 0 0 255 
-0.201255 -0.25041 -0.281707 -0.742757 -0.321329 -0.586454 0 0 0 255 
-0.107471 -0.0172526 0.116715 -0.430863 -0.836367 0.33762 0 0 0 255 
-0.181003 -0.0232938 -0.318481 -0.372505 -0.22875 -0.899078 0 0 0 255 
-0.194576 0.144912 -0.163366 -0.88693 0.339415 0.31268 0 0 0 255 
-0.0505201 -0.108181 -0.125805 -0.249951 -0.941133 0.225673 0 0 0 255 
0.0598972 0.0483937 -0.323994 -0.147333 -0.275898 -0.949123 0 0 0 255 
0.137529 -0.0660252 -0.152031 0.687741 -0.68475 0.237492 0 0 0 255 
-0.145815 0.00122206 -0.332309 -0.0181049 -0.212979 -0.976614 0 0 0 255 
-0.10973 -0.0655411 -0.0229657 0.940728 0.00637172 0.338671 0 0 0 255 
0.046417 -0.0611282 0.0361442 0.0150463 -0.980015 0.197892 0 0 0 255 
-0.179666 -0.0306674 -0.317129 -0.354461 -0.23983 -0.903772 0 0 0 255 
0.22364 -0.0463262 -0.0241348 0.932227 -0.320335 0.16834 255 255 255 255 
0.229265 0.0567718 0.00619031 0.980159 0.131193 0.14858 255 255 255 255 
-0.0525942 -0.139438 0.171535 -0.869149 -0.3948 -0.297846 255 255 255 255 
-0.176031 0.140419 0.125072 -0.771577 0.534554 0.344849 255 255 255 255 
-0.13244 0.12933 0.186504 -0.643916 0.360692 0.674739 255 255 255 255 
0.0506594 0.273122 -0.0143487 0.297975 0.946429 0.124432 255 255 255 255 
-0.20079 -0.0196657 -0.310991 -0.522198 -0.176995 -0.834255 255 255 255 255 
0.124324 -0.0312453 -0.32317 -0.245694 -0.332305 -0.910608 255 255 255 255 
-0.121759 0.233464 -0.199993 -0.521661 0.843929 -0.125116 255 255 255 255 
-0.0866677 0.0120033 0.265186 -0.755945 0.111913 0.644998 255 255 255 255 
0.0888971 -0.0510714 -0.0283234 0.36111 -0.930139 0.0666407 255 255 255 255 
-0.138209 0.0464754 0.180995 -0.751648 -0.39652 0.527065 255 255 255 255 
0.154918 -0.192376 -0.216241 0.258003 -0.501595 0.825734 255 255 255 255 
0.17008 0.158146 -0.287236 0.563432 0.5842 -0.58417 255 255 255 255 
0.101592 0.255194 -0.0587592 0.51797 0.853131 0.0622364 255 255 255 255 
0.0649378 0.195927 -0.299686 0.162872 0.416789 -0.894293 255 255 255 255 
-0.0730099 -0.0703961 -0.256791 0.778157 -0.578127 -0.24544 255 255 255 255 
-0.120228 -0.0296007 0.0723004 -0.349836 -0.852199 0.389065 255 255 255 255 
-0.0779802 -0.0630428 0.266762 -0.787446 -0.348321 0.508528 255 255 255 255 
0.0311712 0.186988 0.215867 0.153109 0.673377 0.723271 255 255 255 255 
-0.126625 0.198967 0.111528 -0.663369 0.697222 0.271704 255 255 255 255 
0.0304238 -0.0869175 0.115281 0.272691 -0.496978 -0.823804 255 255 255 255 
-0.0786188 -0.0483148 0.0717854 -0.267484 -0.924445 0.27176 255 255 255 255 
-0.193488 0.0989031 0.132192 -0.823941 0.262382 0.502272 255 255 255 255 
0.148382 -0.0622832 0.0203777 0.297492 -0.498609 0.814179 255 255 255 255 
-0.0973931 0.179305 0.178955 -0.548152 0.599151 0.583564 255 255 255 255 
0.138081 -0.00428728 0.106888 0.481781 -0.787618 0.384115 255 255 255 255 
0.00975663 -0.0634333 0.00239487 0.0240669 -0.991249 0.129795 255 255 255 255 
-0.0370553 0.270281 -0.246743 -0.392394 0.909544 -0.136956 255 255 255 255 
-0.0738453 0.00133425 0.310565 0.0408839 0.746277 0.664379 255 255 255 255 
0.130267 0.198238 -0.274496 0.422858 0.718334 -0.552437 255 255 255 255 
-0.0944941 -0.0491048 0.0108455 -0.0476585 -0.99624 -0.0723511 255 255 255 255 
-0.124384 0.226749 0.023288 -0.692877 0.712255 0.112314 255 255 255 255 
0.192572 0.121621 0.00175072 0.809387 0.564182 -0.163069 255 255 255 255 
0.0771836 -0.118381 0.211002 0.533628 -0.83007 0.161943 255 255 255 255 
0.12101 0.174938 0.159396 0.602534 0.613167 0.510861 255 255 255 255 
-0.116917 -0.132767 -0.198731 0.550108 -0.267304 0.791157 255 255 255 255 
0.215219 0.0195731 -0.169536 0.826492 -0.0409372 0.561459 255 255 255 255 
-0.151554 -0.0675578 -0.161112 -0.192388 -0.784585 0.589418 255 255 255 255 
0.0820015 -0.102352 -0.175762 0.275406 -0.945991 -0.171035 255 255 255 255 
-0.15377 0.181117 0.0737261 -0.757902 0.645329 0.0955787 255 255 255 255 
-0.0636782 -0.103276 0.263962 -0.758641 -0.372245 0.534695 255 255 255 255 
-0.137672 0.200477 0.073235 -0.712644 0.678103 0.179766 255 255 255 255 
0.129414 -0.112149 -0.0962079 -0.911697 -0.0869424 -0.401559 255 255 255 255 
0.0488463 0.266358 -0.208001 0.32247 0.933238 -0.158365 255 255 255 255 
0.140132 0.0676631 0.193037 0.751606 -0.233633 0.61685 255 255 255 255 
-0.107646 0.251522 -0.121525 -0.546964 0.83597 -0.0445499 255 255 255 255 
0.120764 -0.157742 -0.310752 -0.61969 0.0539308 -0.782992 255 255 255 255 
0.126612 0.0952114 0.203307 0.706109 0.147799 0.692506 255 255 255 255 
-0.217622 -0.0644387 -0.0494204 -0.932513 -0.359921 0.0295972 255 255 255 255 
0.143701 0.220712 -0.0771154 0.755122 0.650747 0.0794886 255 255 255 255 
-0.0199416 -0.0438157 -0.278597 -0.0844434 -0.636636 -0.766528 255 255 255 255 
0.144606 0.0746101 -0.337791 0.0743573 0.0639097 -0.995182 255 255 255 255 
-0.110389 -0.0360006 0.198183 -0.99547 -0.0941646 0.0131362 255 255 255 255 
-0.11539 0.00637315 0.17092 -0.811626 -0.550774 0.194707 255 255 255 255 
0.0192034 -0.148655 0.238351 0.21871 -0.797883 0.561737 255 255 255 255 
0.195472 -0.112975 -0.044283 0.883694 -0.46451 -0.0575724 255 255 255 255 
-0.188654 0.00599991 0.0738163 -0.586914 -0.671244 0.45273 255 255 255 255 
-0.103219 -0.0353804 0.232899 -0.925926 -0.111492 0.360875 255 255 255 255 
-0.111865 0.230679 0.0553592 -0.634072 0.750883 0.184735 255 255 255 255 
-0.15963 -0.0208759 0.0599654 -0.359763 -0.791113 0.494682 255 255 255 255 
-0.182138 -0.0363766 0.026471 -0.470504 -0.624458 0.623441 255 255 255 255 
0.172535 0.182077 -0.157995 0.850021 0.519784 0.085379 255 255 255 255 
-0.113857 -0.0780448 -0.0692633 0.880576 -0.0133217 -0.473718 255 255 255 255 
-0.122825 -0.117366 -0.0901804 0.779418 0.0863144 -0.62053 255 255 255 255 
0.208385 -0.0546804 -0.169894 0.622421 -0.0775276 0.778833 255 255 255 255 
-0.230059 0.0550952 -0.246623 -0.975937 0.178312 -0.125508 255 255 255 255 
-0.1354 -0.00397605 0.109618 -0.488175 -0.778874 0.393753 255 255 255 255 
-0.171597 0.196157 -0.183411 -0.753427 0.652731 0.0793119 255 255 255 255 
-0.131167 -0.130833 -0.109334 0.582687 0.153185 -0.798129 255 255 255 255 
0.00888514 -0.0915744 -0.230657 0.0227894 -0.821825 -0.569284 255 255 255 255 
-0.11934 -0.0377921 0.0534026 -0.30701 -0.896426 0.319634 255 255 255 255 
-0.0385962 -0.104323 -0.205065 -0.145951 -0.876181 -0.459352 255 255 255 255 
-0.102653 -0.194807 -0.279455 0.950765 -0.00647382 -0.309844 255 255 255 255 
0.220801 -0.0774699 -0.190937 0.899919 -0.156982 0.40682 255 255 255 255 
-0.132272 0.228418 -0.180198 -0.567025 0.818123 -0.0956988 255 255 255 255 
0.00595079 -0.0897576 0.306804 0.0960647 -0.501438 0.859844 255 255 255 255 
0.0508978 -0.0622118 -0.0279811 0.210567 -0.967209 0.142014 255 255 255 255 
-0.0173862 -0.0800239 0.311468 -0.108183 -0.34088 0.933861 255 255 255 255 
-0.212557 -0.177528 -0.287521 -0.933255 -0.136463 -0.332284 255 255 255 255 
-0.0430104 0.0928144 -0.32653 0.137405 0.0269191 -0.990149 255 255 255 255 
-0.19459 -0.15836 -0.327993 -0.361223 -0.0768491 -0.929307 255 255 255 255 
-0.0673396 -0.0850786 -0.226242 -0.203878 -0.837852 -0.506397 255 255 255 255 
-0.157292 0.121872 0.166065 -0.691077 0.338828 0.638441 255 255 255 255 
0.126629 -0.0686929 0.00726352 -0.84926 -0.092328 0.519839 255 255 255 255 
-0.107171 -0.0116022 0.136747 -0.608045 -0.761939 0.223 255 255 255 255 
-0.220546 -0.0389416 -0.00608491 -0.78336 -0.427269 0.45143 255 255 255 255 
-0.102391 0.226198 0.0947393 -0.591959 0.766431 0.249335 255 255 255 255 
0.131672 -0.0292715 -0.078771 0.671095 -0.737394 0.0766879 255 255 255 255 
-0.231512 -0.0252707 -0.193989 -0.9312 -0.0398429 0.362325 255 255 255 255 
0.111431 -0.0711353 -0.299717 -0.452158 -0.436057 -0.778079 255 255 255 255 
0.0576168 0.239104 -0.293441 0.599551 0.715706 -0.358195 255 255 255 255 
0.151314 -0.154815 -0.111142 0.421675 -0.572689 -0.703006 255 255 255 255 
0.187409 0.00400824 -0.32297 0.47788 -0.137315 -0.867626 255 255 255 255 
0.112113 -0.156304 -0.211178 -0.848595 -0.243941 0.469446 255 255 255 255 
-0.0944157 0.252055 -0.184351 -0.475677 0.865956 -0.154439 255 255 255 255 
-0.0738463 0.264912 -0.174025 -0.430925 0.891087 -0.142363 255 255 255 255 
-0.201215 -0.115497 -0.313952 -0.448984 0.220006 -0.866032 255 255 255 255 
-0.02481 -0.0801769 -0.0584512 -0.156482 -0.867253 0.472636 255 255 255 255 
0.00473142 -0.0806311 0.107574 0.047122 -0.451 -0.891279 255 255 255 255 
-0.154111 0.182634 -0.27407 -0.596353 0.648068 -0.473678 255 255 255 255 
-0.0250029 -0.102581 -0.0895875 -0.202112 -0.883812 0.421932 255 255 255 255 
-0.0443304 -0.0866593 -0.231213 -0.147063 -0.804401 -0.575596 255 255 255 255 
0.156996 0.190841 -0.259598 0.551033 0.712389 -0.434585 255 255 255 255 
0.149565 -0.134795 -0.320713 -0.411095 0.254827 -0.875251 255 255 255 255 
0.100067 -0.0977796 0.213057 0.809228 -0.52742 0.2588 255 255 255 255 
-0.175293 0.172615 -0.0737453 -0.916007 0.37868 0.132408 255 255 255 255 
0.135167 -0.0716729 -0.0973729 -0.262792 0.360907 -0.894811 255 255 255 255 
0.211232 -0.173256 -0.260792 0.985248 -0.170954 -0.00787364 255 255 255 255 
0.047068 -0.0519775 0.0711991 0.102936 -0.962816 0.249778 255 255 255 255 
0.149485 -0.123204 -0.176248 -0.39476 -0.314104 0.863425 255 255 255 255 
-0.182341 0.126438 -0.303309 -0.676452 0.429255 -0.598458 255 255 255 255 
0.100229 -0.177332 -0.256017 -0.986907 -0.157498 -0.0347671 255 255 255 255 
0.0726049 -0.0725098 -0.253042 -0.74363 -0.630587 -0.222205 255 255 255 255 
0.0947721 -0.095316 -0.270282 -0.600677 -0.485052 -0.635541 255 255 255 255 
-0.212023 0.0932906 -0.277194 -0.865068 0.265248 -0.425796 255 255 255 255 
0.156102 0.179778 0.0248713 0.855286 0.512794 0.0743588 255 255 255 255 
0.166282 0.0599236 0.161654 0.738513 -0.241903 0.62935 255 255 255 255 
0.187449 -0.185464 -0.226126 0.412411 -0.522891 0.745991 255 255 255 255 
0.194389 -0.204289 -0.250157 0.528674 0.0261481 0.848422 255 255 255 255 
0.00970617 -0.108702 0.120448 0.100029 -0.41787 -0.902983 255 255 255 255 
-0.00154087 0.275031 0.0247753 0.0215895 0.985595 0.167737 255 255 255 255 
0.0328434 -0.133322 0.248781 0.478076 -0.834464 0.274068 255 255 255 255 
0.0657198 -0.101437 0.262922 0.767996 -0.4032 0.497605 255 255 255 255 
-0.00396272 -0.07431 -0.25111 -0.0578222 -0.741984 -0.667919 255 255 255 255 
-0.0850453 -0.07251 0.251156 -0.806304 -0.292464 0.514138 255 255 255 255 
-0.136587 0.211773 0.0319785 -0.74548 0.654736 0.124822 255 255 255 255 
0.058852 0.153531 0.229267 0.407478 0.473906 0.780625 255 255 255 255 
0.125792 -0.061437 -0.311861 -0.337303 -0.400294 -0.852051 255 255 255 255 
-0.12482 0.0674609 0.212026 -0.73513 0.101563 0.670275 255 255 255 255 
0.0860868 0.0708213 0.25316 0.63159 0.272691 0.725765 255 255 255 255 
0.0816846 0.118034 0.233583 0.535775 0.391952 0.747876 255 255 255 255 
-0.0440204 -0.10208 -0.0982156 -0.252124 -0.876233 0.410669 255 255 255 255 
0.0427836 -0.0583087 -0.261045 0.146626 -0.670408 -0.727361 255 255 255 255 
-0.0560063 -0.0490338 0.0779555 -0.153949 -0.964118 0.216277 255 255 255 255 
0.207684 0.108503 -0.27729 0.879761 0.30873 -0.361534 255 255 255 255 
0.227529 -0.0367767 -0.0432599 0.963641 -0.266107 0.0241643 255 255 255 255 
0.129389 0.226412 -0.220933 0.509514 0.813301 -0.280957 255 255 255 255 
0.042309 0.20579 0.194045 0.170953 0.729818 0.661923 255 255 255 255 
0.175384 0.178466 -0.123464 0.885206 0.465123 0.00844292 255 255 255 255 
0.195932 0.066571 -0.117432 0.971674 -0.094074 0.216795 255 255 255 255 
0.190621 0.138088 -0.124416 0.961033 0.263582 0.0833142 255 255 255 255 
0.0540458 0.259331 -0.251539 0.511918 0.816032 -0.268387 255 255 255 255 
0.072794 -0.109293 0.244185 0.609906 -0.726049 0.317596 255 255 255 255 
0.129329 -0.092135 -0.0982211 -0.901339 -0.050896 -0.430114 255 255 255 255 
-0.233176 -0.00277613 -0.0390242 -0.991933 -0.124452 0.0241069 255 255 255 255 
0.17299 -0.152691 -0.0800823 0.815807 -0.578306 0.00464876 255 255 255 255 
0.173462 -0.146137 -0.0439413 0.733705 -0.588143 0.340241 255 255 255 255 
0.207883 -0.20924 -0.288762 0.987123 -0.159217 0.0154289 255 255 255 255 
0.0353927 -0.14242 0.223804 0.550303 -0.633952 0.543389 255 255 255 255 
0.179552 0.151533 0.074863 0.798285 0.595648 0.0891287 255 255 255 255 
-0.215644 0.0848906 -0.0215888 -0.740482 0.546428 -0.391284 255 255 255 255 
0.108334 -0.048537 0.215806 0.948181 -0.119476 0.29441 255 255 255 255 
0.0818671 0.00374959 0.272527 0.744507 0.122794 0.656225 255 255 255 255 
-0.00158043 -0.1487 0.244997 0.0888564 -0.771971 0.629417 255 255 255 255 
0.147569 0.139782 0.165036 0.663684 0.469952 0.581953 255 255 255 255 
0.20485 -0.0429825 0.00770031 0.563741 -0.492178 0.663293 255 255 255 255 
-0.0938337 0.244934 0.0479288 -0.524225 0.835104 0.166703 255 255 255 255 
-0.16309 -0.0488048 -0.318269 -0.236461 -0.251172 -0.938615 255 255 255 255 
0.184167 0.087139 -0.0656537 0.976386 -0.0548511 0.208953 255 255 255 255 
-0.0152856 -0.126735 0.127282 -0.373251 -0.488288 -0.788834 255 255 255 255 
-0.00209044 0.134385 0.255849 -0.0653642 0.504518 0.860923 255 255 255 255 
0.160049 0.160634 0.1236 0.731022 0.593976 0.335857 255 255 255 255 
-0.0190852 0.275903 -0.209203 -0.0903368 0.992377 -0.0838249 255 255 255 255 
-0.0589997 0.221568 0.159808 -0.386395 0.783274 0.487012 255 255 255 255 
0.121347 -0.208095 -0.302861 -0.507167 -0.515447 -0.690721 255 255 255 255 
-0.0667007 0.174574 -0.308589 -0.126363 0.379457 -0.91654 255 255 255 255 
0.197783 0.125742 0.0411802 0.81696 0.575658 -0.0345605 255 255 255 255 
0.0643705 -0.0816913 -0.0822167 0.355881 -0.829188 0.431041 255 255 255 255 
0.072594 0.262388 0.00305191 0.424306 0.897579 0.119652 255 255 255 255 
0.0574958 0.254717 0.076625 0.320211 0.915354 0.244116 255 255 255 255 
0.080242 0.248799 0.0635138 0.447747 0.868001 0.214702 255 255 255 255 
0.0416625 0.145745 -0.3195 -0.0833007 0.162373 -0.983207 255 255 255 255 
0.0616582 0.0415991 0.280686 0.563621 0.213534 0.797957 255 255 255 255 
-0.0645715 0.267902 -0.0142567 -0.374553 0.918707 0.125251 255 255 255 255 
-0.196115 0.0483644 -0.134988 -0.911945 -0.216652 0.348451 255 255 255 255 
0.0978965 0.166919 0.190473 0.567833 0.526753 0.632532 255 255 255 255 
-0.146733 0.170273 0.131639 -0.688293 0.630745 0.358348 255 255 255 255 
-0.0664995 -0.0211748 0.319162 0.140652 -0.00614477 0.99004 255 255 255 255 
0.0248466 0.0146637 0.310076 0.20177 0.308665 0.929524 255 255 255 255 
-0.2051 0.0706079 -0.302488 -0.788949 0.228908 -0.570229 255 255 255 255 
-0.0643679 0.245029 0.103671 -0.334306 0.89638 0.291106 255 255 255 255 
0.199732 0.0787007 0.127245 0.807907 -0.0822047 0.583548 255 255 255 255 
0.0938959 -0.0601222 -0.296109 -0.502627 -0.450259 -0.737993 255 255 255 255 
