ply
format ascii 1.0
comment VCGLIB generated
element vertex 632
property float x
property float y
property float z
property float nx
property float ny
property float nz
property uchar red
property uchar green
property uchar blue
property uchar alpha
element face 0
property list uchar int vertex_indices
end_header
0.112821 0.172754 -0.270333 0.445718 0.894956 0.0197362 255 255 255 255 
-0.127789 -0.0331477 0.10635 -0.992585 -0.0929074 -0.0783768 255 255 255 255 
0.141775 0.0811923 -0.0114744 0.932274 0.198649 0.302332 255 255 255 255 
0.0495559 0.189993 -0.274765 0.159457 0.987149 -0.0104877 255 255 255 255 
-0.126966 0.00604055 0.122982 -0.984783 0.114308 -0.130907 255 255 255 255 
-0.0965303 0.073249 0.322177 -0.286512 0.659681 0.694789 255 255 255 255 
0.0497435 0.0602452 0.347085 0.0900201 0.721792 0.686231 255 255 255 255 
-0.0954223 -0.00641244 -0.318908 -0.171499 -0.19872 -0.964934 255 255 255 255 
0.091782 -0.157101 0.213004 0.641743 -0.766845 0.0107349 255 255 255 255 
0.138571 0.031776 0.307566 0.846723 0.27446 0.455777 255 255 255 255 
-0.019748 0.14956 0.0855597 -0.240265 0.967983 0.0726705 255 255 255 255 
-0.117408 0.0496679 0.141943 -0.937563 0.2469 -0.24498 255 255 255 255 
-0.0939469 -0.0922015 -0.0940801 -0.767288 -0.534457 -0.354436 255 255 255 255 
-0.162968 -0.0337749 0.224038 -0.993092 -0.107894 -0.0461153 255 255 255 255 
-0.104327 0.0947446 0.0510415 -0.718001 0.649703 0.249721 255 255 255 255 
0.130457 0.111667 -0.306404 0.699427 -0.234373 -0.675182 255 255 255 255 
0.0780847 0.0821989 -0.332038 0.286346 0.32707 -0.900573 255 255 255 255 
-0.132865 0.0669773 -0.278418 -0.779579 -0.16328 -0.604646 255 255 255 255 
-0.115959 0.102139 0.286428 -0.307698 0.628104 0.714707 255 255 255 255 
-0.0834564 0.115024 -0.108664 -0.0993085 -0.246925 -0.963932 255 255 255 255 
0.0657644 -0.163908 0.104791 0.554321 -0.817311 -0.15726 255 255 255 255 
0.0894441 0.132648 -0.339819 0.465108 -0.38243 -0.798387 255 255 255 255 
0.0363731 -0.188433 0.243766 0.313167 -0.942198 0.119116 255 255 255 255 
0.162491 -0.0084274 0.241351 0.999105 0.0192097 0.0376774 255 255 255 255 
-0.132453 -0.00815355 0.032744 -0.988253 -0.0672531 0.137233 255 255 255 255 
-0.135204 -0.10132 0.18185 -0.888266 -0.413145 -0.200734 255 255 255 255 
-0.11305 0.0208845 -0.193322 -0.896287 -0.268794 0.35273 255 255 255 255 
-0.0912503 -0.0437365 -0.137221 -0.881778 -0.359373 -0.30548 255 255 255 255 
0.0530641 -0.116615 -0.125036 0.57983 -0.728288 -0.36523 255 255 255 255 
-0.133749 0.0379631 0.0182638 -0.946457 0.0885653 0.310443 255 255 255 255 
-0.108389 0.100919 0.0283283 -0.719178 0.545449 0.430428 255 255 255 255 
0.122502 0.0327681 0.0975266 0.971067 0.237194 -0.0277064 255 255 255 255 
0.102828 0.00371175 -0.316788 0.282226 0.885035 -0.370218 255 255 255 255 
0.0372288 0.181682 -0.371906 0.201373 0.971861 -0.122213 255 255 255 255 
-0.098405 0.108203 -0.151544 -0.825715 0.400807 0.396924 255 255 255 255 
0.147441 -0.0421058 0.302499 0.923662 -0.158344 0.348964 255 255 255 255 
0.0960962 0.0414864 -0.316999 0.709626 -0.198115 -0.676152 255 255 255 255 
-0.0234173 -0.0925219 0.401745 -0.0508654 -0.0493165 0.997487 255 255 255 255 
0.100133 0.167378 -0.221036 0.484981 0.815892 0.314822 255 255 255 255 
-0.0487039 0.136285 0.130437 -0.303213 0.951996 0.0420116 255 255 255 255 
0.0384083 0.021144 -0.347426 0.127801 -0.267279 -0.955107 255 255 255 255 
-0.129209 -0.00722816 0.0741639 -0.999245 -0.00202077 0.0388008 255 255 255 255 
-0.0290434 0.127557 -0.377656 -0.498534 -0.521667 -0.692335 255 255 255 255 
-0.0878661 -0.038875 -0.155327 -0.910287 -0.375237 -0.174859 255 255 255 255 
-0.0300121 0.00626934 -0.342887 -0.120558 -0.410452 -0.903878 255 255 255 255 
0.0024001 -0.104685 -0.200112 -0.0981291 -0.893221 -0.43878 255 255 255 255 
0.0559372 -0.0717973 -0.20209 0.576637 -0.752104 -0.319107 255 255 255 255 
-0.0694767 -0.092742 0.385421 -0.577069 -0.536168 0.616048 255 255 255 255 
-0.1037 -0.103605 0.00334329 -0.825068 -0.561447 -0.0635647 255 255 255 255 
0.0265258 0.191811 -0.273667 0.081909 0.996568 0.0120043 255 255 255 255 
0.00721502 -0.177129 0.0858124 0.0586416 -0.985371 -0.160016 255 255 255 255 
-0.0733408 0.122031 0.119868 -0.514577 0.855455 0.0583718 255 255 255 255 
0.129456 0.0966547 0.159315 0.464224 -0.569613 -0.67826 255 255 255 255 
0.102097 -0.00798965 -0.125426 0.923632 -0.108592 -0.367575 255 255 255 255 
0.110604 0.129991 0.11975 0.0179917 -0.663249 -0.748182 255 255 255 255 
-0.127877 0.00210295 0.0878852 -0.998217 0.0576837 0.0153501 255 255 255 255 
-0.123603 -0.0251309 -0.0944639 -0.858221 -0.210105 -0.468309 255 255 255 255 
-0.00467661 -0.105258 0.401959 -0.00594239 -0.0843286 0.99642 255 255 255 255 
-0.148148 0.0109353 -0.26519 -0.544473 0.182966 -0.81858 255 255 255 255 
-0.0641854 0.149675 0.207208 0.259009 0.900762 0.34863 255 255 255 255 
0.0941172 -0.0182065 -0.170608 0.930768 -0.363216 0.0417624 255 255 255 255 
-0.030474 -0.150025 -0.0810882 -0.330569 -0.902184 -0.277107 255 255 255 255 
0.103603 0.138825 0.256361 -0.118035 0.759874 0.639264 255 255 255 255 
-0.123675 0.0690733 0.030877 -0.897079 0.213945 0.386622 255 255 255 255 
0.0408682 -0.164982 0.317412 0.338963 -0.86092 0.379368 255 255 255 255 
0.139926 0.0278873 -0.268502 0.366432 0.512869 -0.776333 255 255 255 255 
0.139063 0.125197 -0.225867 0.955803 0.216632 0.198774 255 255 255 255 
0.149665 0.0153888 0.291436 0.926303 0.158137 0.341988 255 255 255 255 
0.052858 -0.0499082 -0.260866 0.342893 -0.864429 -0.367679 255 255 255 255 
0.118879 -0.069139 0.0477927 0.933507 -0.358305 -0.0135123 255 255 255 255 
-0.144759 -0.00289814 0.311191 -0.902848 0.075676 0.423248 255 255 255 255 
-0.14123 0.0661286 -0.261194 -0.999259 -0.0324338 0.0207196 255 255 255 255 
-0.158155 -0.0397344 0.199182 -0.975997 -0.120302 -0.181542 255 255 255 255 
0.0906427 0.0974997 -0.11977 0.931229 0.34558 0.115703 255 255 255 255 
-0.025036 0.16663 -0.14299 -0.185627 0.958587 0.215995 255 255 255 255 
0.102231 -0.101409 0.0144312 0.84153 -0.53736 -0.0554204 255 255 255 255 
-0.111812 -0.0384041 -0.255569 -0.460905 -0.732482 0.501036 255 255 255 255 
0.0957143 -0.0807046 -0.106482 0.783864 -0.510442 -0.353562 255 255 255 255 
0.104211 0.108073 0.0241841 0.725498 0.606012 0.326192 255 255 255 255 
0.139161 0.12576 0.251583 0.950432 0.153765 0.270252 255 255 255 255 
-0.150434 0.0538206 0.22527 -0.984027 0.11215 -0.138251 255 255 255 255 
-0.149069 0.0442208 -0.2542 -0.727218 -0.0460817 -0.684858 255 255 255 255 
0.128426 0.0458656 0.0366153 0.948227 0.214395 0.234307 255 255 255 255 
-0.174161 0.00868419 -0.285986 -0.312044 0.914053 -0.259106 255 255 255 255 
0.0181524 -0.120662 -0.159177 0.367967 -0.837875 -0.403195 255 255 255 255 
0.14837 0.0336752 -0.053789 0.957748 -0.0220548 -0.286764 255 255 255 255 
0.135704 0.00166605 -0.300606 0.211454 0.930032 -0.300545 255 255 255 255 
-0.147607 0.094787 0.224211 -0.998296 -0.0052813 -0.0581211 255 255 255 255 
0.134061 0.158793 0.229648 0.831451 0.363606 0.420096 255 255 255 255 
0.0706572 0.122958 -0.345208 0.448037 -0.430265 -0.783668 255 255 255 255 
0.123401 -0.0462893 -0.0845499 0.879472 -0.314818 -0.356957 255 255 255 255 
0.000650413 0.190758 -0.23166 -0.00542532 0.99019 0.139625 255 255 255 255 
0.00298806 -0.165123 -0.0369268 -0.144727 -0.972024 -0.184996 255 255 255 255 
0.0806318 0.114729 -0.106091 0.786013 0.579733 0.214693 255 255 255 255 
-0.137958 0.0686097 -0.0712475 -0.945971 -0.0193311 -0.323674 255 255 255 255 
-0.0399589 -0.186722 0.208751 -0.345786 -0.938107 0.0196832 255 255 255 255 
-0.0279655 0.029745 -0.346949 -0.0757385 -0.236308 -0.968722 255 255 255 255 
-0.193264 0.00338574 -0.282323 -0.39952 0.885404 -0.237578 255 255 255 255 
0.153289 0.0322905 -0.26075 0.383955 0.498672 -0.777113 255 255 255 255 
0.00290416 -0.184022 0.117266 0.0418691 -0.986376 -0.159088 255 255 255 255 
-0.150989 0.135175 0.206784 -0.996204 -0.0651944 0.0576842 255 255 255 255 
-0.0333938 0.126015 0.240635 0.142297 0.899421 0.413272 255 255 255 255 
0.146949 0.0682028 0.216211 0.987569 0.0643206 -0.143426 255 255 255 255 
0.0979383 0.177456 -0.249413 0.409835 0.900324 0.146463 255 255 255 255 
0.0649493 0.0166726 -0.337935 0.230991 -0.393008 -0.890049 255 255 255 255 
0.0101897 0.0601918 -0.349261 0.0290236 -0.253716 -0.966843 255 255 255 255 
0.14512 0.128254 -0.0435831 0.992314 0.056378 0.11016 255 255 255 255 
-0.109393 0.0643555 -0.103322 -0.981259 0.100422 -0.16446 255 255 255 255 
0.0508046 0.144359 -0.377252 0.596699 -0.401917 -0.69456 255 255 255 255 
0.134467 0.0543599 0.0152485 0.933079 0.201361 0.298023 255 255 255 255 
-0.130309 0.0116293 0.0381121 -0.985289 0.0242891 0.169161 255 255 255 255 
0.122289 0.0516179 0.159672 0.927029 0.241634 -0.28676 255 255 255 255 
0.125774 -0.0740737 0.133308 0.921 -0.285932 -0.264577 255 255 255 255 
0.0383444 -0.133698 -0.111889 0.457088 -0.817544 -0.350275 255 255 255 255 
0.0357871 -0.128833 -0.126258 0.46951 -0.801636 -0.370053 255 255 255 255 
-0.0118681 0.193823 -0.318565 -0.0626243 0.996901 -0.0475995 255 255 255 255 
-0.12049 -0.0685115 0.0585736 -0.952783 -0.303475 -0.0103945 255 255 255 255 
0.0150688 -0.170434 0.0558958 0.103721 -0.984888 -0.1387 255 255 255 255 
-0.0627082 0.184803 -0.308734 -0.274462 0.958072 -0.0822752 255 255 255 255 
-0.0914451 0.106498 0.0711963 -0.689977 0.708916 0.146187 255 255 255 255 
-0.0769091 0.141909 -0.348747 -0.500755 -0.396569 -0.769401 255 255 255 255 
0.142752 0.0632215 -0.244502 0.969875 0.00387944 0.243572 255 255 255 255 
0.0833522 -0.0400454 -0.206453 0.671477 -0.740414 0.0300934 255 255 255 255 
-0.084172 -0.0393744 -0.194648 -0.857599 -0.513364 -0.0313364 255 255 255 255 
-0.144129 0.00666351 -0.306152 -0.150204 0.960415 -0.234611 255 255 255 255 
0.0490523 -0.102906 0.3931 0.460838 -0.527761 0.71351 255 255 255 255 
0.0143927 -0.0439739 0.400859 0.0557915 0.0770127 0.995468 255 255 255 255 
0.0702807 -0.166098 0.266781 0.525016 -0.827324 0.199735 255 255 255 255 
-0.0498121 -0.0999049 -0.163045 -0.547146 -0.742231 -0.386942 255 255 255 255 
0.152311 -0.0727074 0.205207 0.947528 -0.300998 -0.107658 255 255 255 255 
0.140316 -0.0212309 -0.0643346 0.934232 -0.189769 -0.30199 255 255 255 255 
-0.122937 0.056238 0.319547 -0.669685 0.404831 0.622602 255 255 255 255 
0.0542297 0.0411881 0.367542 0.145639 0.650432 0.745471 255 255 255 255 
0.00841066 -0.142192 0.376635 0.270405 -0.675364 0.686123 255 255 255 255 
-0.145426 0.127107 0.139871 -0.532052 -0.618908 -0.577818 255 255 255 255 
0.0920762 -0.0352913 -0.23042 0.536012 -0.839194 0.0918971 255 255 255 255 
0.0439642 -0.164908 0.0605977 0.228173 -0.963187 -0.142152 255 255 255 255 
-0.0953652 0.144704 -0.338878 -0.492673 -0.307066 -0.814238 255 255 255 255 
-0.0382967 0.164055 -0.149874 -0.332926 0.903165 0.271024 255 255 255 255 
-0.141701 -0.0162044 -0.00131008 -0.979369 -0.1315 0.153442 255 255 255 255 
-0.101482 -0.0366465 0.374363 -0.732171 -0.0190215 0.680855 255 255 255 255 
0.0407756 0.117874 -0.36426 0.430443 -0.492874 -0.75617 255 255 255 255 
0.132488 -0.0211839 -0.327153 -0.100963 -0.755585 -0.647223 255 255 255 255 
-0.124442 0.144652 -0.321991 -0.544351 -0.243345 -0.802786 255 255 255 255 
0.0573261 -0.154293 0.32384 0.467465 -0.788585 0.399513 255 255 255 255 
0.0500922 0.137376 0.171376 0.06701 0.997358 0.0280631 255 255 255 255 
-0.0786993 -0.0560385 -0.166381 -0.878365 -0.438044 -0.191292 255 255 255 255 
0.00377148 -0.18124 0.102798 0.0455631 -0.985673 -0.162395 255 255 255 255 
-0.147221 0.108727 0.241652 -0.994955 0.0587482 0.0813257 255 255 255 255 
0.14959 0.127187 0.168148 0.894772 -0.352302 -0.274348 255 255 255 255 
-0.13034 -0.0945178 0.299601 -0.826972 -0.444497 0.344297 255 255 255 255 
-0.0335367 -0.18866 0.175816 -0.2488 -0.967024 -0.0544337 255 255 255 255 
0.144458 0.0580969 0.273577 0.912713 0.234249 0.334786 255 255 255 255 
-0.129275 0.0667987 0.0198091 -0.902156 0.190724 0.386962 255 255 255 255 
-0.025208 -0.115078 0.391438 -0.391505 -0.610598 0.6884 255 255 255 255 
-0.151098 0.00740107 -0.0403944 -0.992604 -0.100544 -0.0680335 255 255 255 255 
0.129326 0.161778 -0.253115 0.501212 0.851967 0.151456 255 255 255 255 
0.19519 0.00287923 -0.31371 0.456875 0.88924 -0.0227489 255 255 255 255 
0.134519 0.0402817 0.0207128 0.955247 0.140981 0.260053 255 255 255 255 
-0.142627 0.0458993 -0.0664987 -0.967286 -0.0219995 -0.252731 255 255 255 255 
-0.010573 -0.180907 0.100821 -0.0853569 -0.983189 -0.161414 255 255 255 255 
0.146605 -0.0835703 0.195813 0.92421 -0.352445 -0.14703 255 255 255 255 
0.107452 0.0976457 -0.162544 0.874515 0.246741 0.417544 255 255 255 255 
0.15925 0.0230865 0.249172 0.989809 0.11568 0.0830421 255 255 255 255 
-0.00730936 0.100365 0.284957 0.0182965 0.857891 0.513506 255 255 255 255 
0.0564996 0.0289289 -0.346428 0.184818 -0.272982 -0.944099 255 255 255 255 
-0.0586742 -0.153249 0.0202368 -0.463894 -0.876733 -0.12705 255 255 255 255 
0.0828277 -0.0450741 -0.178945 0.798446 -0.590621 -0.116832 255 255 255 255 
-0.00041023 0.156057 0.0357908 -0.0537132 0.99624 0.0679715 255 255 255 255 
-0.00688969 -0.193654 0.253171 -0.0782624 -0.987052 0.140012 255 255 255 255 
0.063095 -0.0688729 -0.190887 0.652797 -0.702873 -0.282533 255 255 255 255 
-0.120935 -0.0317204 -0.250951 -0.433424 -0.722649 0.538443 255 255 255 255 
0.00195355 0.192988 -0.34473 0.000106896 0.997508 -0.0705471 255 255 255 255 
0.0199254 0.0887567 0.306248 -0.0178222 0.816477 0.577102 255 255 255 255 
-0.0218038 0.0795796 0.320181 0.0159884 0.789665 0.61333 255 255 255 255 
-0.116464 0.0793933 -0.166153 -0.909629 0.142445 0.390237 255 255 255 255 
-0.161462 -0.0441104 0.232661 -0.985448 -0.169965 0.002241 255 255 255 255 
0.142359 0.0827774 0.196916 0.97498 -0.0792276 -0.207695 255 255 255 255 
0.0863715 0.0490317 -0.330304 0.679259 -0.195684 -0.707329 255 255 255 255 
-0.16261 -0.0197924 0.216069 -0.994009 -0.0286354 -0.105481 255 255 255 255 
0.162137 -0.0231213 0.223845 0.997893 -0.0283123 -0.0583709 255 255 255 255 
-0.120919 0.0890179 0.0215308 -0.798227 0.400163 0.450226 255 255 255 255 
0.100445 0.0276469 -0.307171 0.693269 -0.200571 -0.692206 255 255 255 255 
0.0437545 0.181945 -0.35799 0.204181 0.971445 -0.120852 255 255 255 255 
0.0349954 -0.160162 0.332292 0.32182 -0.84563 0.425842 255 255 255 255 
-0.148239 0.110581 0.225392 -0.999886 -0.00575372 0.0139776 255 255 255 255 
0.134155 0.08057 0.279587 0.865411 0.269584 0.42236 255 255 255 255 
0.134884 0.120207 -0.0222623 0.900387 0.288686 0.325522 255 255 255 255 
-0.154763 0.141094 0.180993 -0.980764 0.00192352 0.195188 255 255 255 255 
0.0822952 0.0258472 -0.332204 0.118834 -0.223077 -0.96753 255 255 255 255 
-0.112364 0.0693472 0.0906375 -0.915036 0.401516 0.0386411 255 255 255 255 
-0.0789872 0.178347 -0.32128 -0.356631 0.927401 -0.112877 255 255 255 255 
0.143972 -0.0196636 -0.250026 0.392026 -0.511593 0.764584 255 255 255 255 
0.0638786 0.0317628 0.374262 0.211642 0.600102 0.771418 255 255 255 255 
0.149287 0.0621724 0.252814 0.968638 0.168585 0.182537 255 255 255 255 
0.130177 -0.0166695 0.0661545 0.994234 -0.105288 0.0203126 255 255 255 255 
-0.0793186 -0.0911224 0.376538 -0.623831 -0.499006 0.601521 255 255 255 255 
-0.123227 0.0495838 0.0451886 -0.961851 0.136379 0.237157 255 255 255 255 
0.12796 0.007863 0.0947234 0.997892 0.0147135 -0.0632041 255 255 255 255 
0.0696051 0.0419091 -0.344686 0.209688 -0.193134 -0.958504 255 255 255 255 
-0.0529189 0.146496 -0.122592 -0.564393 0.806131 0.177801 255 255 255 255 
-0.116492 0.0598497 -0.167755 -0.935298 -0.0381179 0.351801 255 255 255 255 
0.0723801 0.0544208 -0.343882 0.235889 0.191744 -0.952675 255 255 255 255 
0.0262083 0.188243 -0.347899 0.1466 0.984916 -0.0919153 255 255 255 255 
0.151118 0.0481996 0.263237 0.95268 0.190569 0.236822 255 255 255 255 
-0.149038 0.11518 0.208247 -0.998118 -0.0612411 0.00319711 255 255 255 255 
0.0808954 0.0271727 0.371718 0.341147 0.531312 0.775452 255 255 255 255 
-0.104267 -0.14297 0.260938 -0.661899 -0.732872 0.157447 255 255 255 255 
0.146204 0.0479084 0.278218 0.908108 0.23828 0.344328 255 255 255 255 
-0.0921407 -0.0599383 0.380391 -0.718187 -0.272783 0.640154 255 255 255 255 
-0.121751 0.0477582 0.0627552 -0.978548 0.176254 0.106671 255 255 255 255 
0.154486 0.0362392 0.263046 0.963194 0.170773 0.207593 255 255 255 255 
0.135527 0.131192 -0.0260268 0.934429 0.226955 0.274469 255 255 255 255 
-0.126678 0.0546093 -0.0875183 -0.957131 0.00477066 -0.289615 255 255 255 255 
0.0712703 0.00801649 0.385141 0.356151 0.352585 0.865355 255 255 255 255 
-0.07933 -0.0675305 0.392882 -0.651733 -0.416209 0.634045 255 255 255 255 
-0.111059 0.0793644 0.0671466 -0.869896 0.479277 0.116509 255 255 255 255 
-0.135984 0.0367767 -0.0793915 -0.9576 -0.0346632 -0.286009 255 255 255 255 
-0.133945 0.141565 0.243423 -0.6054 0.50897 0.611915 255 255 255 255 
-0.0897368 0.157566 -0.347292 -0.500286 -0.342259 -0.795344 255 255 255 255 
0.0462143 0.0349228 0.373604 0.119847 0.626073 0.7705 255 255 255 255 
-0.143563 0.125604 0.245181 -0.693319 0.435717 0.573986 255 255 255 255 
0.04952 0.00616141 0.392067 0.241728 0.370282 0.896916 255 255 255 255 
-0.149502 0.0151283 -0.0509594 -0.983705 -0.0843216 -0.15879 255 255 255 255 
-0.106013 0.16359 -0.330948 -0.523082 0.834332 -0.173999 255 255 255 255 
-0.115887 -0.11151 0.307574 -0.751503 -0.533919 0.387522 255 255 255 255 
0.060733 0.0210651 0.382942 0.252019 0.495598 0.831185 255 255 255 255 
0.0259852 0.0111994 0.392164 0.124415 0.504663 0.854304 255 255 255 255 
-0.0853194 -0.13537 0.320149 -0.629688 -0.654696 0.418171 255 255 255 255 
0.0346049 -0.179621 0.119716 0.251971 -0.955698 -0.152156 255 255 255 255 
0.132113 -0.0142957 0.131503 0.968014 0.0227869 -0.249861 255 255 255 255 
-0.118539 0.0591885 0.0688289 -0.958504 0.272931 0.0823347 255 255 255 255 
-0.118678 0.0342846 -0.103266 -0.970549 -0.000900239 -0.2409 255 255 255 255 
0.0268467 -0.0213048 0.400283 0.146256 0.182309 0.972303 255 255 255 255 
-0.112872 0.0973723 -0.166199 -0.867974 0.253345 0.427126 255 255 255 255 
-0.108628 0.0717746 -0.151084 -0.937958 0.156559 0.309392 255 255 255 255 
-0.108217 0.0181538 -0.181213 -0.919657 -0.266014 0.288909 255 255 255 255 
-0.110992 0.028509 -0.121572 -0.979214 -0.0377536 -0.199286 255 255 255 255 
-0.103724 0.0256109 -0.144424 -0.974675 -0.13752 0.17634 255 255 255 255 
-0.104236 0.00856811 -0.132611 -0.969021 -0.180987 -0.168055 255 255 255 255 
-0.105834 0.0170264 -0.12504 -0.991066 -0.10948 -0.07617 255 255 255 255 
-0.127438 0.0186958 -0.0942542 -0.942273 -0.0767661 -0.325927 255 255 255 255 
-0.0636346 0.140339 0.147111 -0.0360012 0.836391 -0.54695 255 255 255 255 
0.0281665 0.137388 0.181304 -0.00520879 0.990404 0.138101 255 255 255 255 
-0.097982 0.178643 -0.273309 -0.416152 0.909279 -0.00534034 255 255 255 255 
-0.103979 0.0996704 0.0390716 -0.725322 0.584866 0.363096 255 255 255 255 
-0.0118445 -0.099499 -0.20411 -0.202073 -0.878543 -0.432814 255 255 255 255 
0.0666299 -0.0569885 -0.209836 0.595562 -0.772969 -0.218687 255 255 255 255 
-0.0591018 -0.0580119 -0.237792 -0.548744 -0.810782 -0.203746 255 255 255 255 
0.00642441 -0.148333 -0.10253 0.129256 -0.93186 -0.339012 255 255 255 255 
-0.0166847 0.118978 -0.378774 -0.199169 -0.553871 -0.80843 255 255 255 255 
-0.0707016 -0.127261 -0.0746996 -0.624565 -0.742568 -0.24189 255 255 255 255 
-0.134996 -0.108122 0.251774 -0.852162 -0.509441 0.119542 255 255 255 255 
-0.159416 -0.0349164 -0.305083 -0.18847 -0.969807 0.154767 255 255 255 255 
0.0478926 0.146033 0.0125641 0.332733 0.936215 0.113092 255 255 255 255 
0.0682954 -0.0136319 -0.315766 0.252689 -0.634932 -0.730075 255 255 255 255 
-0.138115 -0.0656319 0.157543 -0.929505 -0.229711 -0.288537 255 255 255 255 
-0.138403 0.0117642 -0.285731 -0.151355 0.961783 -0.228178 255 255 255 255 
0.029518 -0.165894 0.0403164 0.193839 -0.972602 -0.128347 255 255 255 255 
0.0586209 -0.14991 0.00515846 0.605111 -0.787355 -0.11795 255 255 255 255 
0.147435 0.0742466 0.246991 0.969275 0.151765 0.193582 255 255 255 255 
-0.0684398 0.171675 -0.361265 -0.402536 0.904762 -0.139178 255 255 255 255 
-0.031898 -0.112636 -0.159992 -0.402026 -0.823527 -0.400223 255 255 255 255 
0.0680904 0.128293 0.0666954 0.569953 0.813366 0.116573 255 255 255 255 
-0.0796004 -0.140044 0.0350352 -0.614548 -0.779635 -0.120417 255 255 255 255 
0.0158121 -0.153606 0.35668 0.309339 -0.788498 0.531583 255 255 255 255 
-0.140989 -0.0189589 -0.0655702 -0.931344 -0.215496 -0.29353 255 255 255 255 
0.0594359 -0.155627 0.0439492 0.533681 -0.836394 -0.125015 255 255 255 255 
-0.0507878 0.142857 0.024172 -0.38419 0.910908 0.150484 255 255 255 255 
0.114455 -0.0809775 -0.0285565 0.842982 -0.53471 -0.0588704 255 255 255 255 
0.0910883 0.152947 0.234535 -0.3043 0.774387 0.55473 255 255 255 255 
-0.0225122 -0.182802 0.28849 -0.247144 -0.93639 0.249186 255 255 255 255 
-0.044412 0.0467513 0.361581 -0.0838924 0.648588 0.756502 255 255 255 255 
-0.0531552 0.170721 -0.181931 -0.348311 0.871349 0.345587 255 255 255 255 
0.0887255 0.182581 -0.266163 0.345767 0.937584 0.0371647 255 255 255 255 
0.0468026 0.145614 0.1842 -0.419728 0.868152 0.264839 255 255 255 255 
0.101088 0.155608 -0.202039 0.569326 0.708563 0.416901 255 255 255 255 
-0.144525 0.0914032 0.261647 -0.822503 0.306352 0.479205 255 255 255 255 
0.0487941 0.0486691 0.360638 0.111352 0.674949 0.729414 255 255 255 255 
-0.13867 0.148336 -0.110569 -0.894953 -0.31114 -0.319768 255 255 255 255 
-0.144043 0.116745 0.151781 -0.61421 -0.573139 -0.542455 255 255 255 255 
-0.138185 -0.106402 0.229704 -0.86858 -0.494736 0.0283818 255 255 255 255 
0.0587644 -0.105304 0.383575 0.511137 -0.529931 0.676691 255 255 255 255 
-0.12147 0.0727775 0.306282 -0.51765 0.528234 0.673057 255 255 255 255 
-0.0588754 -0.0948026 -0.155082 -0.671411 -0.644918 -0.365086 255 255 255 255 
-0.0189446 0.118388 0.251427 0.0812136 0.900996 0.426158 255 255 255 255 
0.0880568 -0.136204 0.0924693 0.828191 -0.539308 -0.15247 255 255 255 255 
0.0309118 -0.19166 0.226697 0.262644 -0.962955 0.0611158 255 255 255 255 
-0.00165688 0.156923 0.0174078 -0.0223472 0.997156 0.0719744 255 255 255 255 
-0.0923954 0.121839 0.017553 -0.581051 0.688817 0.433487 255 255 255 255 
0.119111 0.0472174 0.0882371 0.935833 0.346816 0.0627332 255 255 255 255 
-0.0727409 -0.136767 -0.0253625 -0.610189 -0.779827 -0.139784 255 255 255 255 
-0.0754001 0.012697 0.38056 -0.29658 0.442534 0.846288 255 255 255 255 
-0.123694 -0.0420355 0.34767 -0.810486 -0.109694 0.575395 255 255 255 255 
0.115354 -0.0729733 -0.0731406 0.836869 -0.489237 -0.245556 255 255 255 255 
0.0174157 0.188462 -0.36366 0.130245 0.98679 -0.0963471 255 255 255 255 
0.0131611 -0.164226 -0.0446357 0.155473 -0.959214 -0.236086 255 255 255 255 
-0.0152227 0.155809 0.0182097 -0.134327 0.987627 0.0809234 255 255 255 255 
0.0719084 -0.122907 -0.0819086 0.628002 -0.726968 -0.277724 255 255 255 255 
-0.0687861 -0.082791 -0.153363 -0.761529 -0.556204 -0.332731 255 255 255 255 
0.129677 0.0206053 -0.221564 0.703617 -0.303806 0.642359 255 255 255 255 
0.0390298 0.152645 -0.0670938 0.120546 0.991481 0.049331 255 255 255 255 
-0.100256 0.093402 0.0923372 -0.811194 0.579068 0.0815095 255 255 255 255 
-0.0950283 -0.122697 0.0390783 -0.788859 -0.60889 -0.0833948 255 255 255 255 
0.00537657 0.0594134 0.345269 0.00335456 0.726836 0.686803 255 255 255 255 
0.0857013 0.124646 -0.144492 0.757136 0.559937 0.336476 255 255 255 255 
-0.0445644 -0.040842 -0.293293 -0.193154 -0.782828 -0.5915 255 255 255 255 
0.00290243 -0.17335 0.065007 0.0283156 -0.988885 -0.14596 255 255 255 255 
-0.030027 -0.0380256 -0.305412 -0.124166 -0.757275 -0.641184 255 255 255 255 
0.142425 -0.0447895 0.156665 0.948382 -0.11173 -0.296796 255 255 255 255 
0.110095 -0.138485 0.232971 0.714634 -0.696346 0.0663325 255 255 255 255 
0.121002 0.0317844 0.117924 0.961607 0.246447 -0.120727 255 255 255 255 
-0.102089 0.0138422 -0.141447 -0.983522 -0.17263 0.0536917 255 255 255 255 
-0.0217947 -0.19221 0.189567 -0.190668 -0.981005 -0.0357061 255 255 255 255 
0.155113 -0.00526151 0.193221 0.9691 0.0777245 -0.234104 255 255 255 255 
-0.119107 0.0675745 0.0475959 -0.917595 0.306888 0.252664 255 255 255 255 
-0.0366935 0.150881 -0.015491 -0.114076 0.98018 0.161967 255 255 255 255 
0.0519391 0.136986 0.159935 0.0998745 0.994988 0.0048694 255 255 255 255 
-0.083437 0.0952985 -0.329232 -0.483424 -0.326875 -0.812068 255 255 255 255 
0.116664 -0.11676 0.293234 0.747474 -0.59529 0.294809 255 255 255 255 
0.0759416 -0.143734 0.0499794 0.727051 -0.677676 -0.11024 255 255 255 255 
-0.141847 0.00364251 -0.0699984 -0.943797 -0.131401 -0.303283 255 255 255 255 
0.0305315 -0.150889 0.351838 0.352584 -0.785577 0.508481 255 255 255 255 
0.140719 0.0347439 0.00656059 0.964707 0.0692168 0.254064 255 255 255 255 
0.0244005 -0.138033 0.373901 0.343098 -0.693878 0.633101 255 255 255 255 
-0.0348833 -0.182525 0.134648 -0.187636 -0.971773 -0.143001 255 255 255 255 
-0.154978 0.0419583 0.251682 -0.990602 0.136618 -0.0065236 255 255 255 255 
0.106674 0.0721905 0.126543 0.908516 0.408003 -0.0901791 255 255 255 255 
0.133768 -0.0324422 -0.260692 0.276954 -0.928415 0.247674 255 255 255 255 
-0.121208 -0.125767 0.26378 -0.76291 -0.62384 0.169684 255 255 255 255 
-0.00860976 -0.160225 -0.0598888 -0.123771 -0.964815 -0.231974 255 255 255 255 
0.160711 -0.000285656 0.220901 0.992536 0.0645282 -0.103478 255 255 255 255 
0.12365 0.036702 0.0790173 0.969371 0.234879 0.071776 255 255 255 255 
0.0479838 0.147009 -0.0883301 0.404922 0.902042 0.149526 255 255 255 255 
0.132477 -0.0070951 -0.333276 -0.059182 0.126402 -0.990212 255 255 255 255 
-0.103832 0.155612 -0.0191677 -0.473036 0.528153 0.705189 255 255 255 255 
0.0871098 -0.0885619 0.369285 0.643329 -0.414091 0.643938 255 255 255 255 
-0.108631 0.0728314 0.139452 -0.902108 0.245076 -0.35516 255 255 255 255 
0.124831 0.0196095 0.112324 0.979445 0.15808 -0.125295 255 255 255 255 
0.164327 0.0252142 -0.243725 0.701202 0.410388 0.583007 255 255 255 255 
0.0417541 -0.0900704 0.402732 0.0979752 -0.0191711 0.995004 255 255 255 255 
0.127918 0.154173 -0.231963 0.578076 0.758507 0.300823 255 255 255 255 
0.13099 -0.0855565 0.153465 0.899861 -0.338915 -0.274566 255 255 255 255 
0.100367 -0.0355963 -0.29467 0.121128 -0.982929 -0.13849 255 255 255 255 
0.0347583 0.0488286 0.359659 0.0553177 0.684996 0.726443 255 255 255 255 
-0.00402533 -0.194644 0.200823 -0.0586943 -0.998079 -0.0198386 255 255 255 255 
-0.0582707 -0.140051 0.345074 -0.545215 -0.663466 0.5124 255 255 255 255 
-0.0037554 0.036793 0.368185 0.00243207 0.657786 0.753201 255 255 255 255 
0.14742 -0.00488736 -0.293212 0.287957 0.737327 -0.611089 255 255 255 255 
0.0322525 0.0200093 0.386435 0.122818 0.541027 0.831989 255 255 255 255 
0.00433612 -0.0469213 0.400709 0.0360835 0.0654145 0.997206 255 255 255 255 
0.0338048 -0.190857 0.20337 0.268721 -0.963184 -0.00816213 255 255 255 255 
-0.0255379 -0.145926 -0.0999001 -0.283386 -0.900289 -0.330412 255 255 255 255 
-0.0425772 -0.0507511 -0.278139 -0.261062 -0.81911 -0.510789 255 255 255 255 
0.0344417 0.107868 -0.361216 0.355486 -0.496796 -0.791722 255 255 255 255 
0.140803 0.136637 -0.0371606 0.968028 0.141911 0.206842 255 255 255 255 
0.0309264 0.153833 -0.0747384 0.167079 0.984318 0.0565984 255 255 255 255 
-0.0904553 -0.13059 0.0465475 -0.743181 -0.662171 -0.0959747 255 255 255 255 
0.0263311 0.090188 -0.354439 0.222214 -0.453384 -0.863171 255 255 255 255 
0.126515 0.0271825 0.0720245 0.987061 0.142404 0.0737011 255 255 255 255 
-0.0038951 0.15804 -0.00344644 0.00171273 0.996958 0.0779159 255 255 255 255 
0.103019 0.0464927 -0.114029 0.997002 0.0773645 -0.00143834 255 255 255 255 
-0.0372104 0.143573 0.0792697 -0.356693 0.931017 0.0773122 255 255 255 255 
-0.0389048 -0.0776053 -0.224557 -0.376961 -0.847823 -0.372957 255 255 255 255 
0.0536609 0.149258 -0.0285357 0.206514 0.970468 0.12467 255 255 255 255 
-0.149316 0.0958797 -0.0441033 -0.940949 -0.0458502 -0.335429 255 255 255 255 
0.11133 0.0898321 0.153688 0.431353 -0.57601 -0.694368 255 255 255 255 
0.00184546 0.113595 -0.377121 0.175997 -0.527938 -0.830847 255 255 255 255 
-0.124097 -0.114749 0.285069 -0.795226 -0.542346 0.271065 255 255 255 255 
0.0086784 0.0672634 0.336131 0.00394752 0.750492 0.660867 255 255 255 255 
-0.104983 0.124855 0.00362189 -0.586356 0.579843 0.565658 255 255 255 255 
0.0433313 -0.158682 0.00327249 0.388954 -0.913108 -0.122263 255 255 255 255 
0.0709058 -0.0772382 0.390412 0.581059 -0.349614 0.734943 255 255 255 255 
0.00880875 -0.167222 -0.0068221 -0.00408816 -0.991525 -0.129852 255 255 255 255 
0.118057 0.106867 0.00711793 0.784163 0.483167 0.389408 255 255 255 255 
-0.0840093 0.15696 -0.0186182 0.295206 0.915117 0.274616 255 255 255 255 
-0.0566425 -0.091809 -0.166041 -0.676176 -0.643691 -0.358397 255 255 255 255 
-0.0569548 -0.161593 0.307564 -0.510002 -0.804606 0.304148 255 255 255 255 
0.0924404 0.143436 -0.178918 0.658799 0.614443 0.434101 255 255 255 255 
-0.0552926 -0.179698 0.161242 -0.396058 -0.916744 -0.0521411 255 255 255 255 
-0.0368051 -0.0289959 -0.312745 -0.155851 -0.718457 -0.677886 255 255 255 255 
-0.130125 -0.0551606 0.335334 -0.835962 -0.200654 0.51079 255 255 255 255 
0.0847024 -0.135981 0.0636978 0.814327 -0.571168 -0.103146 255 255 255 255 
0.0996579 -0.11149 0.0621437 0.86881 -0.488639 -0.0800102 255 255 255 255 
0.12455 0.00502086 -0.298642 0.219204 0.93052 -0.293396 255 255 255 255 
-0.118562 -0.0624456 0.348932 -0.789782 -0.249394 0.560399 255 255 255 255 
0.0746164 0.13793 0.118174 -0.10079 -0.620042 -0.778067 255 255 255 255 
-0.0328844 -0.0901981 -0.207223 -0.288103 -0.861504 -0.418101 255 255 255 255 
0.10328 0.176998 -0.27871 0.407872 0.912589 -0.0286745 255 255 255 255 
0.127816 0.00683932 0.120188 0.979051 0.0952491 -0.179965 255 255 255 255 
-0.064925 -0.0829077 -0.16391 -0.748099 -0.5766 -0.328452 255 255 255 255 
0.0511128 0.132844 0.233976 -0.293527 0.851646 0.434213 255 255 255 255 
-0.116359 0.0803615 0.0403977 -0.855605 0.378369 0.353238 255 255 255 255 
-0.137801 0.0297457 0.313429 -0.838791 0.222463 0.49693 255 255 255 255 
0.133019 0.101038 -0.0871992 0.912865 -0.130828 -0.386732 255 255 255 255 
0.109517 0.163517 -0.224295 0.527191 0.787251 0.319853 255 255 255 255 
0.0623099 -0.14359 -0.0185737 0.641589 -0.756093 -0.129177 255 255 255 255 
0.127466 0.031333 0.0545233 0.975375 0.160192 0.151601 255 255 255 255 
-0.100784 -0.104291 -0.0312904 -0.772753 -0.624367 -0.114098 255 255 255 255 
-0.0451833 -0.183397 0.154362 -0.277971 -0.95677 -0.0855786 255 255 255 255 
-0.148757 0.0728106 0.232511 -0.994362 0.0646078 -0.0840841 255 255 255 255 
-0.112603 -0.089585 0.008521 -0.876653 -0.480148 -0.0306145 255 255 255 255 
-0.125811 0.0350546 0.0477573 -0.978562 0.112468 0.172532 255 255 255 255 
0.000936037 -0.167007 -0.0172298 -0.145145 -0.978385 -0.147295 255 255 255 255 
-0.106643 -0.100856 0.0237514 -0.863568 -0.502131 -0.0459772 255 255 255 255 
0.0221285 0.07781 0.323149 0.000163905 0.77908 0.626925 255 255 255 255 
0.127422 0.0176328 0.137208 0.956662 0.182232 -0.227132 255 255 255 255 
0.129227 0.00484218 0.0768516 0.999899 0.00688702 0.0124331 255 255 255 255 
-0.0293593 -0.0817261 -0.226902 -0.296731 -0.85853 -0.418182 255 255 255 255 
-8.57353e-005 -0.133343 -0.141066 -0.139538 -0.904386 -0.403255 255 255 255 255 
0.0789819 -0.165742 0.1874 0.587555 -0.80726 -0.0557752 255 255 255 255 
-0.00815205 -0.0794017 -0.245482 -0.141637 -0.871555 -0.469395 255 255 255 255 
-0.125247 0.162235 -0.251117 -0.746283 0.654081 0.12345 255 255 255 255 
-0.117906 -0.0519424 0.353611 -0.79183 -0.182362 0.58288 255 255 255 255 
-0.0986691 -0.0254456 0.376999 -0.699155 0.0587783 0.71255 255 255 255 255 
-0.101394 -0.10893 0.017301 -0.828481 -0.556357 -0.0639328 255 255 255 255 
0.113284 0.0866921 -0.0991558 0.631331 -0.0951716 -0.769651 255 255 255 255 
-0.106624 -0.104163 0.0522517 -0.892032 -0.449693 -0.0453378 255 255 255 255 
0.019636 0.0204805 0.385251 0.0767897 0.576562 0.813437 255 255 255 255 
-0.0751367 -0.043919 -0.252607 -0.505028 -0.828616 -0.241539 255 255 255 255 
0.0251111 0.0946619 0.296644 -0.035623 0.831275 0.554718 255 255 255 255 
-0.129362 -0.0661216 0.330896 -0.826762 -0.278085 0.489013 255 255 255 255 
0.136451 0.142987 -0.238586 0.934362 0.327139 0.141234 255 255 255 255 
-0.1039 -0.0480636 0.371298 -0.751956 -0.138159 0.644573 255 255 255 255 
-0.117595 -0.132598 0.187267 -0.785612 -0.608069 -0.114302 255 255 255 255 
-0.0283631 0.153853 -0.00266273 -0.161939 0.980299 0.113094 255 255 255 255 
-0.049273 -0.0734097 -0.218005 -0.467522 -0.832571 -0.297066 255 255 255 255 
0.0122668 0.116921 -0.377882 0.264821 -0.522323 -0.810585 255 255 255 255 
0.143158 0.114098 -0.242937 0.982812 0.147637 0.110836 255 255 255 255 
-0.100703 0.00124937 -0.139374 -0.96931 -0.220706 -0.108294 255 255 255 255 
-0.107781 0.0871173 0.0591179 -0.793432 0.569022 0.216053 255 255 255 255 
0.0552723 -0.165784 0.0824651 0.280626 -0.946792 -0.157586 255 255 255 255 
-0.131932 0.0295489 0.0247077 -0.960901 0.0754318 0.26642 255 255 255 255 
-0.121101 0.0795384 0.0297285 -0.866048 0.307856 0.393935 255 255 255 255 
0.125726 0.0203754 0.0961007 0.991597 0.119903 -0.048565 255 255 255 255 
0.0314544 -0.172545 0.0839602 0.187636 -0.969276 -0.159049 255 255 255 255 
0.129975 0.0885015 0.166129 0.507232 -0.542924 -0.66929 255 255 255 255 
-0.123557 0.0593517 0.0380671 -0.931075 0.203953 0.302493 255 255 255 255 
0.056838 -0.0513786 -0.25016 0.413387 -0.855316 -0.312322 255 255 255 255 
0.0967591 0.0774212 -0.116398 0.970922 0.229549 0.0679495 255 255 255 255 
-0.0959397 -0.0446529 -0.251892 -0.513033 -0.726555 0.457073 255 255 255 255 
0.052756 0.11518 -0.353592 0.420253 -0.473468 -0.77409 255 255 255 255 
0.0731395 0.125124 -0.106187 0.736197 0.638051 0.225622 255 255 255 255 
0.021739 -0.140238 -0.115074 0.333562 -0.872182 -0.357821 255 255 255 255 
-0.123762 -0.0577032 0.0575538 -0.964452 -0.264228 0.0040622 255 255 255 255 
0.143673 0.0832993 -0.253252 0.992703 0.0236821 0.118237 255 255 255 255 
0.0728138 -0.0540067 -0.198555 0.659737 -0.728499 -0.184492 255 255 255 255 
0.0206552 -0.0325949 0.400934 0.0966902 0.121107 0.987919 255 255 255 255 
-0.0418646 -0.0960898 -0.185645 -0.407512 -0.81942 -0.403094 255 255 255 255 
-0.122524 0.0647885 0.31329 -0.565178 0.494053 0.66067 255 255 255 255 
-0.0161013 -0.14174 0.371264 -0.338553 -0.676968 0.653526 255 255 255 255 
0.0681196 -0.154247 0.0615126 0.700721 -0.703685 -0.117552 255 255 255 255 
0.065873 0.134674 0.152442 0.122019 0.992136 -0.0279002 255 255 255 255 
0.0296352 0.0995353 0.288281 -0.0557417 0.841757 0.536971 255 255 255 255 
0.162816 -0.00859822 -0.250035 0.316106 -0.478507 0.819212 255 255 255 255 
0.128422 0.0148662 0.0715635 0.996355 0.0697445 0.0491245 255 255 255 255 
0.143014 0.0702674 0.268007 0.926612 0.21117 0.311124 255 255 255 255 
-0.120261 0.0576238 0.0551405 -0.950087 0.240887 0.198261 255 255 255 255 
-0.0907459 -0.0468269 0.386558 -0.726296 -0.140906 0.672785 255 255 255 255 
-0.11604 0.068629 0.0612167 -0.927026 0.329681 0.178698 255 255 255 255 
0.0501729 0.0171036 0.387068 0.194874 0.500448 0.84355 255 255 255 255 
0.0268791 -0.00417259 0.398813 0.16695 0.317195 0.93355 255 255 255 255 
-0.113442 0.044226 -0.108531 -0.982634 0.0378036 -0.181665 255 255 255 255 
-0.0445933 -0.0705804 -0.23263 -0.42807 -0.839497 -0.334665 255 255 255 255 
-0.00908372 0.111107 -0.375304 -0.161878 -0.55005 -0.819292 255 255 255 255 
0.148602 0.0746848 0.236376 0.991422 0.108852 0.0723384 255 255 255 255 
-0.0766153 0.162116 -0.359788 -0.515324 -0.409362 -0.752903 255 255 255 255 
-0.00132962 -0.151678 0.367938 -0.205754 -0.695262 0.688677 255 255 255 255 
0.0576578 -0.161559 0.0630767 0.33203 -0.932417 -0.142668 255 255 255 255 
-0.150889 0.0668051 0.256644 -0.993911 0.108636 -0.0184268 255 255 255 255 
-0.136576 0.139851 -0.103638 -0.884781 -0.291333 -0.363714 255 255 255 255 
-0.131953 0.0524159 0.311751 -0.722201 0.359753 0.590766 255 255 255 255 
-0.0440028 -0.100124 -0.17318 -0.499446 -0.772346 -0.392473 255 255 255 255 
0.0745708 -0.15356 0.0868936 0.741521 -0.654772 -0.146357 255 255 255 255 
0.117068 0.0493354 0.0999128 0.944324 0.329006 0.00276548 255 255 255 255 
-0.136869 -0.045953 0.326942 -0.863398 -0.15386 0.480489 255 255 255 255 
-0.00378568 0.191934 -0.359242 -0.0129017 0.99598 -0.0886401 255 255 255 255 
0.0109203 -0.16755 -0.0260639 -0.0347534 -0.982996 -0.180307 255 255 255 255 
0.0198249 0.15729 -0.0813512 0.163765 0.984546 0.062049 255 255 255 255 
-0.060807 -0.0446058 -0.274093 -0.357101 -0.830855 -0.4268 255 255 255 255 
0.119265 0.0406269 0.108906 0.95866 0.279378 -0.0540298 255 255 255 255 
-0.113989 0.0775851 0.0535086 -0.887284 0.389512 0.246997 255 255 255 255 
-0.0110626 0.158145 -0.0146652 -0.0344235 0.995397 0.0894387 255 255 255 255 
0.0757314 -0.149082 0.0683575 0.732496 -0.669782 -0.121828 255 255 255 255 
-0.145883 0.00289925 -0.0603471 -0.961497 -0.131503 -0.241311 255 255 255 255 
0.146394 0.0166267 -0.00974283 0.981514 -0.0421728 0.186688 255 255 255 255 
-0.152748 0.0543591 0.25417 -0.99191 0.121237 -0.037636 255 255 255 255 
0.12126 0.0484963 0.0696609 0.950984 0.284022 0.122315 255 255 255 255 
0.143517 -0.0098389 -0.335512 0.0357111 0.247816 -0.968149 255 255 255 255 
-0.0587925 -0.152332 0.327191 -0.560396 -0.717258 0.414121 255 255 255 255 
-0.0467647 -0.0537599 -0.268818 -0.327177 -0.830505 -0.450795 255 255 255 255 
0.030253 0.153876 -0.0494441 0.116143 0.98987 0.0816638 255 255 255 255 
-0.0359597 -0.0840708 -0.215969 -0.329717 -0.856108 -0.397951 255 255 255 255 
0.113689 0.0821818 0.160581 0.459533 -0.555789 -0.692769 255 255 255 255 
0.0276462 -0.16536 -0.0117293 0.223544 -0.9641 -0.143318 255 255 255 255 
0.016638 -0.16722 0.00359602 0.101073 -0.986971 -0.125186 255 255 255 255 
-0.0685617 -0.073354 -0.171873 -0.806681 -0.523125 -0.274966 255 255 255 255 
-0.033981 -0.172296 0.311364 -0.361279 -0.886679 0.28858 255 255 255 255 
0.0833263 0.151067 -0.177842 0.561426 0.727527 0.394341 255 255 255 255 
-0.0509086 -0.179014 0.139476 -0.277135 -0.953628 -0.117427 255 255 255 255 
0.0865301 -0.136195 0.0780615 0.819576 -0.560256 -0.120031 255 255 255 255 
-0.0374162 -0.0932473 -0.196484 -0.34173 -0.846587 -0.408057 255 255 255 255 
-0.0528262 -0.0900474 -0.181222 -0.597703 -0.711156 -0.370147 255 255 255 255 
0.0414974 0.128379 0.234355 -0.233618 0.880202 0.413118 255 255 255 255 
-0.110782 0.087833 0.0458858 -0.803158 0.512297 0.30412 255 255 255 255 
-0.14813 0.0139518 0.298375 -0.918537 0.118073 0.377291 255 255 255 255 
0.0462368 -0.156406 -0.0154685 0.541142 -0.829815 -0.136283 255 255 255 255 
-0.098497 -0.105632 -0.0420365 -0.757355 -0.637966 -0.139332 255 255 255 255 
-0.0682338 -0.172851 0.159166 -0.498171 -0.865448 -0.0531531 255 255 255 255 
0.125647 0.0262704 0.0825923 0.986487 0.160679 0.0320335 255 255 255 255 
0.063313 -0.177064 0.192396 0.482347 -0.875144 -0.0382668 255 255 255 255 
-0.119438 0.16812 -0.266379 -0.624948 0.780285 0.0244067 255 255 255 255 
-0.00563128 0.0217305 0.381725 0.0120028 0.613382 0.789695 255 255 255 255 
-0.0685048 -0.0452942 -0.263768 -0.431805 -0.835964 -0.338687 255 255 255 255 
-0.0655749 -0.0618106 -0.208858 -0.692952 -0.706191 -0.1453 255 255 255 255 
0.0242223 0.13573 -0.388743 0.406682 -0.511431 -0.757 255 255 255 255 
-0.113515 0.0706703 0.0748879 -0.916112 0.384488 0.113615 255 255 255 255 
0.0670921 -0.159254 0.0750779 0.651668 -0.7461 -0.136611 255 255 255 255 
0.0504618 -0.165772 0.0723589 0.270012 -0.950941 -0.151013 255 255 255 255 
0.135749 0.0805309 0.184341 0.961035 -0.0610796 -0.269595 255 255 255 255 
-0.110648 -0.0389505 -0.268805 -0.179022 -0.9803 0.08344 255 255 255 255 
-0.00120246 -0.0380536 0.400426 0.0420482 0.0795578 0.995943 255 255 255 255 
-0.0546525 -0.080219 -0.197791 -0.560289 -0.762179 -0.324283 255 255 255 255 
-0.123998 0.0797353 0.298843 -0.506993 0.534922 0.675882 255 255 255 255 
-0.00431971 -0.143392 0.375433 -0.224644 -0.675419 0.702384 255 255 255 255 
0.0774388 0.130077 0.138364 0.18312 0.981248 -0.0601687 255 255 255 255 
0.151983 -0.00981795 -0.247051 0.360333 -0.4744 0.803184 255 255 255 255 
-0.084674 -0.0221632 0.387904 -0.559108 0.203123 0.803828 255 255 255 255 
0.0584594 -0.00012201 0.391972 0.27753 0.323075 0.904765 255 255 255 255 
0.0109232 0.0105914 0.393136 0.0879003 0.532278 0.841994 255 255 255 255 
-0.0385795 -0.0696447 -0.243112 -0.374372 -0.844225 -0.383574 255 255 255 255 
0.00115809 -0.162183 0.347234 0.169729 -0.84703 0.503718 255 255 255 255 
0.0520637 -0.161644 0.0508788 0.354515 -0.925049 -0.136393 255 255 255 255 
-0.14241 0.0771776 0.283031 -0.602744 0.474229 0.641722 255 255 255 255 
-0.13754 0.0650617 0.297762 -0.619067 0.456583 0.638975 255 255 255 255 
0.0799151 -0.149869 0.0970112 0.738321 -0.656527 -0.154449 255 255 255 255 
-0.0268415 0.187629 -0.365339 -0.251723 0.958878 -0.131101 255 255 255 255 
0.032235 -0.160202 -0.036272 0.364756 -0.908525 -0.203803 255 255 255 255 
0.0249306 0.154803 -0.0654442 0.137335 0.988765 0.0590219 255 255 255 255 
-0.0854426 -0.041076 -0.271408 -0.375643 -0.92521 -0.0536638 255 255 255 255 
-0.023989 0.155625 -0.0149502 -0.098581 0.988618 0.113648 255 255 255 255 
-0.151443 0.0605203 0.276089 -0.991649 0.12751 0.0193296 255 255 255 255 
0.122568 0.0515326 0.0559431 0.945135 0.275958 0.174836 255 255 255 255 
-0.047216 -0.163663 0.319853 -0.492022 -0.800822 0.341465 255 255 255 255 
0.0299334 0.153996 -0.0367849 0.139436 0.985393 0.0977709 255 255 255 255 
-0.045733 -0.082995 -0.207256 -0.417439 -0.831191 -0.367241 255 255 255 255 
0.0317417 -0.164413 0.00298163 0.247861 -0.960322 -0.127853 255 255 255 255 
-0.0674591 -0.0678926 -0.190481 -0.762976 -0.605771 -0.225632 255 255 255 255 
-0.0162367 -0.169506 0.330346 0.0698292 -0.905568 0.418413 255 255 255 255 
-0.0600811 -0.177174 0.149215 -0.378838 -0.922109 -0.0787229 255 255 255 255 
0.081039 -0.145265 0.082393 0.776381 -0.61575 -0.134476 255 255 255 255 
-0.0465089 -0.0875976 -0.197537 -0.445958 -0.812384 -0.375704 255 255 255 255 
-0.0608023 -0.0796349 -0.18616 -0.669034 -0.674408 -0.312359 255 255 255 255 
-0.104638 0.0900169 0.0689343 -0.814882 0.555928 0.164049 255 255 255 255 
0.0492334 -0.152014 -0.0303459 0.522743 -0.835889 -0.167418 255 255 255 255 
-0.10767 -0.0959645 -0.0277615 -0.804125 -0.585968 -0.100124 255 255 255 255 
0.0546954 -0.181197 0.188492 0.420449 -0.906104 -0.046889 255 255 255 255 
0.00702181 0.0213507 0.38382 0.0470394 0.593617 0.803372 255 255 255 255 
-0.0688019 -0.0364916 -0.286702 -0.294063 -0.828309 -0.476897 255 255 255 255 
-0.0605596 -0.0643284 -0.219549 -0.576853 -0.786096 -0.22202 255 255 255 255 
0.00486031 0.125234 -0.386993 0.271663 -0.527468 -0.80497 255 255 255 255 
0.0669518 -0.162284 0.0897993 0.590543 -0.792508 -0.152282 255 255 255 255 
-0.0981145 -0.0402342 -0.270091 -0.29752 -0.952218 0.0690088 255 255 255 255 
0.0053433 -0.0127388 0.401338 0.103 0.211638 0.971905 255 255 255 255 
-0.0578062 -0.0725635 -0.208776 -0.544232 -0.787885 -0.288184 255 255 255 255 
-0.133461 0.0786767 0.29123 -0.575016 0.491279 0.654219 255 255 255 255 
-0.0804714 -0.00993678 0.387339 -0.482358 0.275135 0.831644 255 255 255 255 
0.00843553 -9.89519e-005 0.399622 0.116506 0.375724 0.919379 255 255 255 255 
-0.020236 -0.153568 0.357841 -0.300191 -0.721772 0.623643 255 255 255 255 
0.0554892 -0.156028 0.0279821 0.501512 -0.856119 -0.124683 255 255 255 255 
-0.149834 0.0723908 0.269925 -0.991854 0.124421 0.0273022 255 255 255 255 
-0.14711 0.0422998 0.293697 -0.902317 0.204326 0.379573 255 255 255 255 
0.0755664 -0.156676 0.106792 0.676567 -0.719301 -0.157677 255 255 255 255 
-0.0354678 0.173492 -0.389092 -0.418576 0.319703 -0.85005 255 255 255 255 
0.0303555 -0.164067 -0.024239 0.302417 -0.937209 -0.173736 255 255 255 255 
0.020033 0.155592 -0.0400466 0.127726 0.987738 0.0897756 255 255 255 255 
-0.103447 -0.0381113 -0.284688 -0.184083 -0.980978 -0.061602 255 255 255 255 
-0.00185806 0.159018 -0.0271972 0.0350206 0.99551 0.0879399 255 255 255 255 
-0.153842 0.0415674 0.271686 -0.985149 0.137957 0.102226 255 255 255 255 
-0.0352188 -0.161273 0.340444 -0.433832 -0.772212 0.464197 255 255 255 255 
0.00958913 0.15772 -0.0255785 0.092414 0.991815 0.0881019 255 255 255 255 
0.0394918 -0.16152 -0.00641297 0.408384 -0.902358 -0.137744 255 255 255 255 
-0.0736021 -0.0578518 -0.194871 -0.781346 -0.603019 -0.160829 255 255 255 255 
-0.0183071 -0.164316 0.345728 -0.021932 -0.861752 0.506856 255 255 255 255 
-0.0600404 -0.171185 0.124873 -0.3423 -0.929425 -0.137839 255 255 255 255 
-0.0737906 -0.063714 -0.174445 -0.833713 -0.508405 -0.215515 255 255 255 255 
0.0400591 -0.158579 -0.0273961 0.434774 -0.884299 -0.170252 255 255 255 255 
-0.01706 0.0195127 0.383747 -0.00348816 0.590904 0.806735 255 255 255 255 
-0.0864007 -0.0381952 -0.28584 -0.291808 -0.944134 -0.153162 255 255 255 255 
-0.0738444 -0.0530935 -0.207307 -0.761268 -0.639499 -0.107294 255 255 255 255 
-0.0146817 0.135682 -0.396798 0.129353 -0.547622 -0.826667 255 255 255 255 
0.0594126 -0.167598 0.0973349 0.436034 -0.885967 -0.157913 255 255 255 255 
-0.0729855 -0.0404952 -0.275683 -0.330364 -0.851685 -0.406807 255 255 255 255 
-0.00560967 0.00563328 0.396279 0.0569392 0.514367 0.855678 255 255 255 255 
-0.062923 -0.070531 -0.199733 -0.671288 -0.700629 -0.241848 255 255 255 255 
-0.139929 0.0855018 0.277101 -0.757132 0.373654 0.535849 255 255 255 255 
-0.0615843 0.00512547 0.388074 -0.239826 0.44124 0.864749 255 255 255 255 
0.00148637 -0.0247185 0.401726 0.0730586 0.149461 0.986065 255 255 255 255 
-0.0399643 -0.147944 0.352329 -0.444964 -0.710366 0.545332 255 255 255 255 
-0.148411 0.0870445 0.251386 -0.992894 0.102054 0.0612141 255 255 255 255 
-0.141048 0.0478775 0.303627 -0.824254 0.282504 0.490711 255 255 255 255 
-0.0321373 0.183739 -0.377702 -0.292247 0.945305 -0.144879 255 255 255 255 
0.0219946 -0.165122 -0.03464 0.230771 -0.952667 -0.197913 255 255 255 255 
-0.0976991 -0.0346034 -0.301638 -0.219389 -0.966843 -0.130701 255 255 255 255 
0.00329429 0.15817 -0.0156263 0.051227 0.995127 0.084249 255 255 255 255 
-0.153503 0.0299142 0.279405 -0.963518 0.136383 0.230287 255 255 255 255 
-0.035431 -0.168596 0.326748 -0.383902 -0.837139 0.389639 255 255 255 255 
-0.0737222 -0.0608009 -0.184664 -0.805754 -0.560529 -0.191227 255 255 255 255 
-0.0297336 -0.157363 0.349909 -0.367152 -0.756825 0.540754 255 255 255 255 
-0.0760586 -0.167338 0.144275 -0.508735 -0.85685 -0.0836412 255 255 255 255 
-0.0608844 -0.0836413 -0.174664 -0.718996 -0.623101 -0.307878 255 255 255 255 
0.0414605 -0.15527 -0.0391979 0.425584 -0.884302 -0.192062 255 255 255 255 
-0.0113226 0.0128238 0.390386 0.0271956 0.557787 0.829538 255 255 255 255 
-0.0766682 -0.0299422 -0.296064 -0.225999 -0.770485 -0.596052 255 255 255 255 
-0.0251998 0.141903 -0.400131 0.0163699 -0.558753 -0.829172 255 255 255 255 
-0.02815 0.00852855 0.391745 -0.026853 0.53747 0.842855 255 255 255 255 
-0.146094 0.0653182 0.287411 -0.722859 0.397991 0.564871 255 255 255 255 
-0.0130195 -0.00623225 0.401622 0.0596106 0.355544 0.932757 255 255 255 255 
-0.0501475 -0.151255 0.340501 -0.497666 -0.722744 0.479551 255 255 255 255 
-0.148969 0.0796978 0.260644 -0.989179 0.127571 0.0724611 255 255 255 255 
-0.148494 0.0276985 0.294915 -0.919612 0.159846 0.358837 255 255 255 255 
-0.00768953 0.190805 -0.371186 -0.069313 0.991897 -0.106475 255 255 255 255 
-0.0936775 -0.0264705 -0.312326 -0.153138 -0.284779 -0.946282 255 255 255 255 
-0.156274 0.0335409 0.260313 -0.988209 0.133141 0.0756062 255 255 255 255 
-0.0460506 -0.169469 0.305049 -0.428175 -0.85305 0.29828 255 255 255 255 
-0.0281795 -0.1424 0.366495 -0.36268 -0.705528 0.608845 255 255 255 255 
-0.0859183 -0.159648 0.151545 -0.618314 -0.780812 -0.0895567 255 255 255 255 
-0.000148493 0.137325 -0.396674 0.125558 -0.550258 -0.825501 255 255 255 255 
-0.0205618 0.00176562 0.397772 0.0183485 0.493431 0.869591 255 255 255 255 
-0.147905 0.0542024 0.291141 -0.878922 0.26539 0.396314 255 255 255 255 
-0.0179404 -0.0243452 0.402933 0.0440571 0.195261 0.979761 255 255 255 255 
-0.0493304 -0.158478 0.330748 -0.485526 -0.762695 0.427272 255 255 255 255 
