ply
format ascii 1.0
comment VCGLIB generated
element vertex 630
property float x
property float y
property float z
property float nx
property float ny
property float nz
property uchar red
property uchar green
property uchar blue
property uchar alpha
element face 0
property list uchar int vertex_indices
end_header
-0.0626148 0.0360593 -0.127754 -0.973289 -0.224723 0.0469851 255 255 255 255 
0.0284556 -0.017875 -0.0272989 -0.214222 -0.387831 0.896491 255 255 255 255 
0.0145908 0.193834 0.239602 -0.674223 0.724205 0.144744 255 255 255 255 
0.0158539 0.190248 0.0783165 -0.089505 0.992925 -0.078036 255 255 255 255 
0.0902217 -0.0175639 -0.127844 0.934326 -0.355899 0.0192478 255 255 255 255 
0.051931 0.14493 -0.40793 0.105755 0.282181 -0.953514 255 255 255 255 
0.0557285 0.156809 0.38039 0.566127 0.679241 0.467047 255 255 255 255 
-0.0596866 0.12713 0.33342 -0.91478 0.396602 0.0767087 255 255 255 255 
0.00308767 0.187036 0.072909 -0.186316 0.977617 -0.0977257 255 255 255 255 
0.0344764 0.194476 0.190846 0.291185 0.952377 0.090498 255 255 255 255 
0.0109106 -0.13449 -0.168302 -0.0977981 -0.979962 0.173524 255 255 255 255 
0.0318256 0.209146 -0.384342 -0.00596386 0.592279 -0.805711 255 255 255 255 
0.133363 0.0663729 -0.132927 0.97093 -0.221531 0.0906628 255 255 255 255 
0.120847 0.0272662 -0.296279 0.949299 -0.306624 0.0693796 255 255 255 255 
-0.0733033 0.130402 -0.131639 -0.986485 0.122797 0.108485 255 255 255 255 
0.0230678 0.19896 0.172109 0.17769 0.98225 0.0600886 255 255 255 255 
0.00531369 0.0459144 -0.409031 -0.102624 0.0961127 -0.990066 255 255 255 255 
-0.094356 0.142518 0.181838 -0.796551 -0.0223046 0.60416 255 255 255 255 
0.0713061 -0.0453182 -0.411667 0.138617 0.0830419 -0.986858 255 255 255 255 
-0.0785361 -0.165262 -0.384406 -0.99923 -0.032069 0.0225979 255 255 255 255 
0.124044 0.0844509 0.0120391 0.861621 -0.490306 0.131185 255 255 255 255 
0.0556283 -0.137822 -0.197734 -0.01397 -0.998312 0.0563715 255 255 255 255 
0.143478 0.114225 0.0242816 0.838157 -0.528473 0.134944 255 255 255 255 
0.115259 0.0183938 -0.292365 0.934857 -0.343477 0.0898138 255 255 255 255 
0.109851 0.0850899 0.091951 0.515582 -0.848924 0.116204 255 255 255 255 
0.0637451 0.0800011 0.177101 0.393543 -0.844678 0.362826 255 255 255 255 
0.0770561 -0.0683156 -0.299583 0.904172 -0.296822 0.307195 255 255 255 255 
-0.0156178 0.180547 0.303591 -0.792814 0.609254 0.0159928 255 255 255 255 
-0.0511182 -0.00310597 -0.0931828 -0.946031 -0.2971 0.12945 255 255 255 255 
0.0895989 -0.0365209 -0.1166 0.949417 -0.312244 0.0333402 255 255 255 255 
-0.0706045 0.0946862 -0.0975319 -0.986717 -0.0228326 0.160836 255 255 255 255 
-0.0387282 0.204898 -0.155259 -0.241711 0.964827 0.10337 255 255 255 255 
0.0400225 -0.154957 -0.427661 0.112706 -0.0458256 -0.992571 255 255 255 255 
0.0105882 0.207435 -0.124608 -0.0762795 0.989317 0.12423 255 255 255 255 
0.0709159 -0.0474549 -0.272357 0.903346 -0.390052 0.178395 255 255 255 255 
-0.0319851 -0.0385042 -0.182614 -0.992445 -0.111238 -0.0517612 255 255 255 255 
0.134449 0.0593177 -0.157691 0.961076 -0.267899 0.067549 255 255 255 255 
0.055963 0.18287 0.0662828 0.396455 0.917521 -0.031278 255 255 255 255 
0.0124587 0.21734 -0.371021 -0.0883321 0.973283 -0.21194 255 255 255 255 
-0.0240306 0.0815114 0.413191 -0.684899 -0.453217 0.570533 255 255 255 255 
-0.122747 0.146027 0.0443282 -0.607656 0.785003 -0.120513 255 255 255 255 
0.146453 0.114472 0.151636 0.595201 -0.740953 0.311006 255 255 255 255 
0.0764476 -0.104583 -0.294068 0.884811 -0.319864 0.338816 255 255 255 255 
0.143626 0.117628 0.161929 0.596286 -0.72108 0.352825 255 255 255 255 
-0.0490934 0.00603791 -0.33716 -0.955793 -0.217944 0.197381 255 255 255 255 
0.0491868 0.180166 0.312021 0.79515 0.601941 0.0735175 255 255 255 255 
0.135688 0.0964072 -0.112942 0.989271 -0.0689757 0.128784 255 255 255 255 
0.0929851 0.102937 0.300086 0.896306 0.441086 0.0455897 255 255 255 255 
0.131064 0.178762 -0.151341 0.960435 0.264269 0.0878944 255 255 255 255 
-0.0306243 0.149335 0.271255 -0.80425 0.594246 -0.00730954 255 255 255 255 
0.0213363 0.0104134 -0.409926 -0.0323777 0.0858783 -0.995779 255 255 255 255 
-0.0126651 0.200124 -0.0902116 -0.190883 0.964348 0.183291 255 255 255 255 
0.104583 0.204377 -0.220083 0.320131 0.946894 0.0301305 255 255 255 255 
-0.0621707 -0.158756 -0.330695 -0.98029 -0.0278436 0.195592 255 255 255 255 
-0.00795362 -0.193738 -0.42978 -0.0921496 -0.0995542 -0.990756 255 255 255 255 
-0.0550563 0.068697 0.0930861 -0.496825 -0.866524 0.0479641 255 255 255 255 
-0.0545924 0.066894 0.354139 -0.898106 -0.414382 0.147286 255 255 255 255 
0.125495 0.0774527 -0.0803325 0.978503 -0.153844 0.137349 255 255 255 255 
-0.0162048 0.0698902 0.412362 -0.661 -0.5367 0.524434 255 255 255 255 
0.000812494 0.052946 0.0755195 -0.113378 -0.991911 0.0570822 255 255 255 255 
0.117682 -0.0814147 -0.391132 0.960786 -0.190495 0.201499 255 255 255 255 
-0.00348863 -0.117703 -0.117301 -0.0886768 -0.909695 0.405699 255 255 255 255 
0.0574757 0.0995008 0.404747 0.486456 -0.291811 0.823533 255 255 255 255 
-0.0567659 0.0164255 -0.0926825 -0.954902 -0.266374 0.131178 255 255 255 255 
0.113731 0.0448507 -0.395828 0.410456 0.0745373 -0.908829 255 255 255 255 
-0.00249676 -0.150295 -0.305264 -0.0260198 -0.621489 0.782991 255 255 255 255 
0.081506 0.113134 0.235051 0.885199 0.464449 -0.0266418 255 255 255 255 
-0.0776831 0.105053 -0.300817 -0.998128 -0.0113403 -0.0600956 255 255 255 255 
-0.047972 0.0892993 -0.397745 -0.414814 0.124323 -0.901373 255 255 255 255 
0.117629 0.101206 -0.0322797 0.982439 0.077202 0.169866 255 255 255 255 
0.115758 -0.182342 -0.386809 0.935391 -0.290197 0.202061 255 255 255 255 
-0.0207298 -0.207943 -0.426718 -0.161421 -0.128063 -0.978541 255 255 255 255 
0.0806184 0.0230355 -0.00846734 -0.403245 -0.247713 0.880927 255 255 255 255 
0.03014 0.19603 0.270941 0.62054 0.781056 0.0698627 255 255 255 255 
0.118075 -0.00259027 -0.35073 0.952817 -0.276479 0.125293 255 255 255 255 
0.105036 0.214308 -0.352956 0.313416 0.934339 -0.169649 255 255 255 255 
0.077977 -0.100608 -0.280382 0.907589 -0.363618 0.209914 255 255 255 255 
-0.0422396 0.204577 -0.171872 -0.228645 0.970073 0.0817357 255 255 255 255 
0.138917 0.127994 -0.24961 0.999252 0.0384373 -0.00430286 255 255 255 255 
0.125108 0.0988896 -0.065927 0.980678 0.0126902 0.195219 255 255 255 255 
0.136345 0.113564 -0.110619 0.988542 0.0279836 0.148327 255 255 255 255 
-0.0355796 -0.0984197 -0.249277 -0.999975 -0.00686957 0.00183817 255 255 255 255 
0.0223822 0.210326 -0.160804 -0.0234702 0.996507 0.0801419 255 255 255 255 
0.0823898 -0.0875292 -0.128836 0.953687 -0.293091 0.067658 255 255 255 255 
0.0664515 -0.0376626 -0.0234621 -0.177981 -0.390601 0.903191 255 255 255 255 
-0.0499438 0.0876755 -0.00853847 -0.545675 -0.835702 -0.0619723 255 255 255 255 
0.026094 -0.224758 -0.367841 -0.00900298 -0.790544 0.612339 255 255 255 255 
-0.0650886 0.037683 -0.346867 -0.975541 -0.210539 0.0631923 255 255 255 255 
-0.0767885 -0.16403 -0.371391 -0.997547 -0.0314707 0.0625319 255 255 255 255 
0.110024 0.022655 -0.0696942 0.954866 -0.26003 0.143583 255 255 255 255 
-0.0758079 -0.0913615 -0.402503 -0.985555 0.0167406 0.168527 255 255 255 255 
-0.018854 -0.08563 -0.256963 0.0360408 -0.621209 0.782816 255 255 255 255 
-0.0304755 0.162967 -0.0134971 -0.315433 0.946462 0.0686435 255 255 255 255 
0.0860096 0.0961617 -0.403038 0.287499 0.139538 -0.947562 255 255 255 255 
0.0960361 0.216236 -0.304393 0.287195 0.957815 -0.0104162 255 255 255 255 
-0.0676841 -0.0127573 -0.395564 -0.98745 -0.0811087 0.135516 255 255 255 255 
0.00928549 0.00888336 -0.409921 -0.0750315 0.0831978 -0.993704 255 255 255 255 
0.140192 0.0915837 -0.200776 0.995105 -0.0939038 0.0307959 255 255 255 255 
0.00579563 0.0322104 0.387141 -0.589755 -0.689233 0.420887 255 255 255 255 
0.0118046 0.202565 -0.0916727 -0.0856688 0.983374 0.160112 255 255 255 255 
0.106483 0.0842812 0.0637598 0.53734 -0.827982 0.16035 255 255 255 255 
-0.0110484 -0.130524 -0.223349 -0.207161 -0.977039 -0.0497883 255 255 255 255 
-0.0733554 0.0731688 -0.19505 -0.989556 -0.144037 0.0057584 255 255 255 255 
0.0765935 0.127214 0.384128 0.697521 0.553304 0.455323 255 255 255 255 
0.0860031 0.113861 0.230323 0.604019 -0.674047 -0.42523 255 255 255 255 
-0.0500618 0.114358 -0.00981655 -0.972059 -0.0181326 0.234036 255 255 255 255 
-0.0331615 -0.0679485 -0.309515 -0.972432 0.0377252 0.230113 255 255 255 255 
0.0307998 0.198955 -0.0703468 -0.00360903 0.987401 0.158194 255 255 255 255 
0.0646401 -0.0427334 -0.0267416 -0.175565 -0.401671 0.898798 255 255 255 255 
0.0806449 -0.0268002 -0.253587 0.89814 -0.428006 0.100774 255 255 255 255 
-0.0285071 -0.0730945 -0.284221 -0.989673 0.0489763 0.134715 255 255 255 255 
0.087069 -0.212351 -0.362453 0.242239 -0.722745 0.647271 255 255 255 255 
-0.0646736 0.0436073 -0.155421 -0.974096 -0.225931 0.00955766 255 255 255 255 
0.0613852 0.187829 0.177012 0.343607 0.935313 0.0844063 255 255 255 255 
0.11498 0.111407 -0.0122733 0.964054 0.24195 0.10982 255 255 255 255 
0.108791 -0.124005 -0.411893 0.253847 0.00138947 -0.967243 255 255 255 255 
-0.0596635 0.0357016 -0.321874 -0.960605 -0.265191 0.0831401 255 255 255 255 
-0.0434677 -0.0378847 -0.0751448 -0.887781 -0.375367 0.266355 255 255 255 255 
0.0814109 -0.110287 -0.310258 0.871209 -0.300127 0.388483 255 255 255 255 
0.0658089 0.0595124 0.336782 0.798541 -0.591737 0.110356 255 255 255 255 
0.129876 0.100257 0.147713 0.561164 -0.779591 0.278087 255 255 255 255 
0.0583591 -0.0565123 -0.0312845 -0.163057 -0.477026 0.863631 255 255 255 255 
-0.0358784 0.0167072 -0.27042 -0.932664 -0.35866 0.0387471 255 255 255 255 
-0.0644356 -0.0842736 -0.408736 -0.270425 0.0802244 -0.959393 255 255 255 255 
-0.11927 0.114829 0.0971669 -0.69883 -0.702084 0.136801 255 255 255 255 
-0.0294104 0.162101 -0.396083 -0.337796 0.349012 -0.87412 255 255 255 255 
0.0953575 0.0621472 -0.400937 0.315724 0.0937938 -0.944204 255 255 255 255 
0.0700963 0.178882 -0.0105101 0.309693 0.94425 0.111724 255 255 255 255 
-0.00623997 0.197918 0.151521 -0.204929 0.977242 0.0547997 255 255 255 255 
0.121396 0.0335669 -0.151153 0.922047 -0.382132 0.061678 255 255 255 255 
-0.00621306 0.0665685 0.184554 -0.393891 -0.874636 0.282599 255 255 255 255 
-0.0678035 0.0579895 -0.275121 -0.963617 -0.266882 0.0147191 255 255 255 255 
-0.0214128 -0.0850823 -0.0710464 -0.324226 -0.706139 0.62948 255 255 255 255 
-0.121112 0.1136 0.0375361 -0.655877 -0.721605 -0.221612 255 255 255 255 
0.0753206 -0.0415937 -0.139386 0.937796 -0.344526 -0.0428929 255 255 255 255 
0.117281 -0.157124 -0.409518 0.34982 -0.129874 -0.927771 255 255 255 255 
0.125916 0.054613 -0.109834 0.9632 -0.248856 0.101572 255 255 255 255 
0.106571 0.00510217 -0.0801767 0.950674 -0.284591 0.123397 255 255 255 255 
-0.100599 0.152991 0.153103 -0.600834 0.771271 0.210093 255 255 255 255 
-0.043079 -0.0144454 -0.126519 -0.963847 -0.265347 0.0242683 255 255 255 255 
-0.0603564 0.114249 0.300231 -0.884838 0.464203 -0.0397242 255 255 255 255 
0.131684 0.0971115 0.127058 0.558696 -0.807945 0.187305 255 255 255 255 
-0.0685081 0.0868339 -0.0874228 -0.981938 -0.0620528 0.178738 255 255 255 255 
-0.0375912 0.164742 0.0457477 -0.391405 0.90553 -0.163763 255 255 255 255 
-0.000711032 -0.113881 -0.10708 -0.079802 -0.890777 0.447379 255 255 255 255 
0.137401 0.160641 -0.249604 0.988218 0.152931 -0.00610601 255 255 255 255 
0.118931 0.199461 -0.159232 0.335634 0.939392 0.0699413 255 255 255 255 
0.13858 0.0726638 -0.194018 0.980662 -0.1924 0.0358257 255 255 255 255 
-0.00520349 0.218184 -0.359844 -0.148507 0.970358 -0.190662 255 255 255 255 
-0.0570023 0.166683 -0.0748855 -0.929313 0.278255 0.2428 255 255 255 255 
-0.0737374 0.153407 0.189551 -0.577462 0.76641 0.281343 255 255 255 255 
-0.0763826 0.095947 -0.346637 -0.990838 -0.0311079 -0.131424 255 255 255 255 
-0.0482324 0.0623895 -0.0326761 -0.910287 -0.296908 0.288483 255 255 255 255 
-0.0103674 -0.0158268 -0.410366 -0.133358 0.0757687 -0.988167 255 255 255 255 
0.0528139 0.211756 -0.220088 0.101601 0.99374 0.0464441 255 255 255 255 
0.0842167 -0.0847592 -0.183367 0.962126 -0.271153 0.0280924 255 255 255 255 
-0.0822136 0.108265 0.163902 -0.650021 -0.697254 0.302174 255 255 255 255 
0.0752785 -0.172072 -0.421425 0.265743 -0.145973 -0.952928 255 255 255 255 
0.134473 0.128771 0.0522721 0.774611 0.62828 -0.0724054 255 255 255 255 
0.128359 0.0335982 -0.338401 0.973 -0.229068 0.0282588 255 255 255 255 
0.00806029 0.0470366 0.112287 0.0160915 -0.992174 0.12382 255 255 255 255 
0.035988 0.194901 0.287757 0.778345 0.627099 0.0304112 255 255 255 255 
-0.0605108 -0.00554049 -0.366249 -0.974077 -0.135818 0.180908 255 255 255 255 
0.0848304 0.104538 0.216793 0.885186 0.464293 -0.0296224 255 255 255 255 
0.129188 0.0763447 -0.383416 0.682953 0.0779659 -0.726289 255 255 255 255 
-0.0703901 0.0614787 -0.316804 -0.977577 -0.210427 0.00801365 255 255 255 255 
0.104342 0.0638288 0.0122568 0.442252 -0.776998 0.447981 255 255 255 255 
-0.0398208 -0.109337 -0.213644 -0.997266 -0.0720677 -0.0163281 255 255 255 255 
0.047368 -0.114858 -0.108119 0.134747 -0.881286 0.452966 255 255 255 255 
0.0202715 -0.0987493 -0.0754956 -0.00959096 -0.834691 0.550635 255 255 255 255 
-0.053514 0.00507076 -0.0865008 -0.944888 -0.290352 0.15127 255 255 255 255 
-0.0459527 -0.011025 -0.116786 -0.958781 -0.279182 0.052886 255 255 255 255 
-0.0164235 0.0494233 0.115622 -0.32634 -0.937998 0.116888 255 255 255 255 
0.135953 0.0596003 -0.193583 0.96391 -0.263674 0.0367947 255 255 255 255 
0.130197 0.192924 -0.210256 0.730506 0.681711 0.0403974 255 255 255 255 
-0.0338736 0.00800344 -0.212034 -0.950866 -0.301747 -0.0692948 255 255 255 255 
0.0791183 -0.120545 -0.162917 0.947601 -0.313298 0.0624265 255 255 255 255 
-0.0132475 0.0288315 -0.0202223 -0.282029 -0.426464 0.859411 255 255 255 255 
0.0204257 0.188628 0.0654445 -0.0413028 0.997039 -0.0648563 255 255 255 255 
-0.06225 0.0890365 0.15397 -0.600434 -0.75671 0.258591 255 255 255 255 
-0.0734649 0.120124 0.198335 -0.689734 -0.589837 0.419952 255 255 255 255 
-0.139652 0.126128 0.0595852 -0.70167 -0.711759 -0.032539 255 255 255 255 
0.135909 0.0815938 -0.346279 0.991141 -0.0737332 -0.110465 255 255 255 255 
0.100491 -0.00339388 -0.295607 0.913398 -0.378374 0.150123 255 255 255 255 
-0.0563917 0.134915 0.356579 -0.91299 0.348458 0.212194 255 255 255 255 
0.144511 0.111441 0.0655808 0.655869 -0.745368 0.119426 255 255 255 255 
-0.042639 0.050014 0.346516 -0.608458 -0.729793 0.311739 255 255 255 255 
-0.0686846 0.166892 -0.280436 -0.959369 0.276603 -0.0556889 255 255 255 255 
0.101098 -0.0197484 -0.0779887 0.946765 -0.294522 0.129972 255 255 255 255 
0.0353475 0.186664 0.0489719 0.00091299 0.999518 -0.0310277 255 255 255 255 
-0.0636079 0.0983568 -0.0130495 -0.577011 -0.806694 -0.127687 255 255 255 255 
0.0328281 0.196901 0.174516 0.236672 0.969234 0.0676171 255 255 255 255 
-0.0715681 -0.114883 -0.370072 -0.983046 0.00498454 0.183293 255 255 255 255 
0.0271667 0.203595 -0.387661 -0.0478848 0.531931 -0.845433 255 255 255 255 
0.0158526 0.0240089 0.299523 0.279419 -0.938101 -0.204673 255 255 255 255 
0.0516904 -0.203198 -0.343761 0.14936 -0.697627 0.70072 255 255 255 255 
0.131349 0.0524638 -0.311044 0.979375 -0.201862 0.0087279 255 255 255 255 
0.0379967 -0.138164 -0.194577 -0.0539618 -0.996693 0.0607507 255 255 255 255 
-0.0614993 0.0467615 -0.393598 -0.457145 0.06987 -0.886644 255 255 255 255 
0.136255 0.0779209 -0.329951 0.992543 -0.100011 -0.0696816 255 255 255 255 
-0.0468764 -0.151143 -0.315339 -0.20304 -0.627193 0.751934 255 255 255 255 
-0.00319468 -0.106366 -0.244063 0.498464 0.415038 0.761102 255 255 255 255 
0.140145 0.136421 -0.169123 0.990357 0.121882 0.0658655 255 255 255 255 
-0.0238642 -0.0478253 -0.305077 -0.979229 0.00885701 0.202565 255 255 255 255 
0.100474 -0.124579 -0.34286 0.873075 -0.217389 0.436443 255 255 255 255 
-0.00477291 0.0934917 -0.40801 -0.17476 0.14634 -0.973675 255 255 255 255 
0.0466529 0.0556559 0.260475 0.562998 -0.744799 -0.358201 255 255 255 255 
0.115938 -0.0185244 -0.362908 0.951943 -0.264068 0.155153 255 255 255 255 
0.116417 -0.104066 -0.378551 0.950408 -0.184714 0.25021 255 255 255 255 
-0.0640431 0.00329794 -0.401062 -0.928304 -0.011953 -0.37163 255 255 255 255 
0.0368427 -0.216149 -0.356389 0.0380453 -0.763115 0.645142 255 255 255 255 
-0.101993 0.138918 0.0359151 -0.708444 0.268445 -0.652721 255 255 255 255 
-0.0304841 0.0183535 -0.0282835 -0.420791 -0.426716 0.80053 255 255 255 255 
0.0367263 0.219046 -0.279287 0.0228007 0.999548 0.0196174 255 255 255 255 
-0.0346975 -0.222044 -0.375475 -0.195815 -0.979347 -0.0503579 255 255 255 255 
0.122982 0.127084 0.0151932 0.803486 0.591365 -0.0685394 255 255 255 255 
-0.0736686 0.0823671 -0.130806 -0.993862 -0.0714055 0.0844977 255 255 255 255 
0.000801673 -0.111824 -0.276759 0.0746054 -0.615827 0.784341 255 255 255 255 
-0.0602716 0.180966 0.112354 -0.482924 0.874432 -0.0464051 255 255 255 255 
0.0408048 -0.225352 -0.378113 0.0476761 -0.968322 -0.24511 255 255 255 255 
-0.0614562 -0.166419 -0.33271 -0.262075 -0.6364 0.725473 255 255 255 255 
0.135714 0.119929 0.174976 0.60072 -0.683827 0.414145 255 255 255 255 
0.112013 0.0622048 -0.0237298 0.960825 -0.252124 0.115102 255 255 255 255 
-0.0724847 0.152886 -0.286094 -0.973015 0.221753 -0.0637808 255 255 255 255 
-0.0639264 0.173937 0.0865911 -0.471944 0.871893 -0.130658 255 255 255 255 
-0.0460464 0.153786 0.334016 -0.871581 0.483613 0.0804105 255 255 255 255 
0.0686854 0.22172 -0.312996 0.150128 0.987942 -0.0378416 255 255 255 255 
0.00858102 0.199599 -0.0786812 -0.101567 0.980122 0.170426 255 255 255 255 
0.0794673 -0.113377 -0.243316 0.925991 -0.373004 0.0583919 255 255 255 255 
-0.0643059 -0.0250661 -0.37287 -0.994267 -0.0657808 0.0842989 255 255 255 255 
-0.0649167 0.180229 -0.283384 -0.94094 0.332835 -0.0620685 255 255 255 255 
-0.0109032 -0.124773 -0.256067 -0.21895 -0.971627 -0.0894485 255 255 255 255 
-0.0208754 0.21847 -0.340038 -0.193533 0.970124 -0.146302 255 255 255 255 
0.0840199 -0.0169487 -0.158983 0.915823 -0.40103 0.0210336 255 255 255 255 
-0.0518182 0.00172979 -0.0757435 -0.934406 -0.304003 0.185655 255 255 255 255 
0.0225655 -0.0524157 -0.286298 0.534375 0.409006 0.739701 255 255 255 255 
-0.0500908 -0.00228981 -0.108779 -0.955876 -0.282974 0.078911 255 255 255 255 
0.0825101 -0.213209 -0.409969 0.351525 -0.377552 -0.85667 255 255 255 255 
0.0312404 0.19198 0.218136 0.352041 0.930488 0.101288 255 255 255 255 
0.115785 0.0881674 0.0934775 0.538718 -0.834587 0.115098 255 255 255 255 
0.131804 0.193724 -0.260176 0.962588 0.269642 -0.0267852 255 255 255 255 
0.133527 0.0598482 -0.32171 0.985844 -0.166565 -0.0191699 255 255 255 255 
0.120886 0.0269561 -0.22527 0.910445 -0.412557 0.0297795 255 255 255 255 
-0.0550775 -0.184212 -0.344662 -0.273537 -0.658388 0.701216 255 255 255 255 
0.0732334 0.0936243 0.24216 0.596245 -0.68159 -0.424178 255 255 255 255 
0.0845121 -0.0739279 -0.316122 0.900137 -0.245579 0.359783 255 255 255 255 
-0.0400651 -0.0275377 -0.337989 -0.9548 -0.0931542 0.282275 255 255 255 255 
-0.0653271 0.124694 -0.0745578 -0.973023 0.0820874 0.215611 255 255 255 255 
-0.0506743 0.0211293 -0.170743 -0.960171 -0.276835 -0.0378765 255 255 255 255 
0.118218 0.155016 0.185383 0.668496 0.164184 0.725366 255 255 255 255 
0.0915159 -0.00259561 -0.405423 0.212686 0.0790567 -0.973917 255 255 255 255 
-0.0310554 0.207608 -0.185837 -0.198157 0.977749 0.0688493 255 255 255 255 
-0.0437617 0.157076 0.364577 -0.853777 0.463349 0.237429 255 255 255 255 
0.0906713 -0.024639 -0.407506 0.210418 0.0788942 -0.974423 255 255 255 255 
0.112808 0.149303 0.0516869 0.706523 0.705214 -0.0591451 255 255 255 255 
-0.0637835 0.178089 -0.216566 -0.955797 0.29367 0.0144762 255 255 255 255 
0.0501799 0.175161 0.285705 0.83855 0.544783 -0.00672262 255 255 255 255 
-0.064189 0.156184 0.00275193 -0.74399 0.167818 -0.646773 255 255 255 255 
0.0187007 0.136882 0.419133 0.122083 0.345478 0.930452 255 255 255 255 
-0.00172146 0.0641566 -0.00165337 -0.235646 -0.580349 0.779529 255 255 255 255 
-0.0614024 0.186429 -0.253547 -0.946344 0.322339 -0.0230176 255 255 255 255 
0.092371 0.218132 -0.350198 0.252761 0.954183 -0.160146 255 255 255 255 
-0.05111 -0.214861 -0.372458 -0.285914 -0.739488 0.609435 255 255 255 255 
0.090149 -0.0317211 -0.408221 0.209474 0.0788129 -0.974633 255 255 255 255 
0.139984 0.130514 -0.207346 0.996931 0.0715791 0.0316909 255 255 255 255 
0.0364291 -0.182556 -0.326314 0.142889 -0.636799 0.757674 255 255 255 255 
-0.0625078 -0.0402642 -0.375839 -0.965741 -0.0487309 0.25489 255 255 255 255 
0.0784855 -0.122683 -0.223216 0.932275 -0.360541 0.0295562 255 255 255 255 
0.0770713 0.177505 0.0870295 0.463266 0.884622 -0.0531831 255 255 255 255 
0.0654593 0.115206 0.226315 0.547915 0.0683904 0.833733 255 255 255 255 
0.137021 0.0704588 -0.216932 0.979508 -0.20036 0.0204857 255 255 255 255 
-0.0377313 0.0175257 -0.0320808 -0.423267 -0.424703 0.800295 255 255 255 255 
0.138951 0.129529 -0.255903 0.998983 0.0439135 -0.0101864 255 255 255 255 
0.118061 -0.031158 -0.383193 0.957699 -0.242282 0.155279 255 255 255 255 
0.0896314 0.165367 0.00886883 0.44349 0.893911 0.0651172 255 255 255 255 
-0.0342015 -0.10314 -0.152831 -0.97516 -0.208687 0.0742496 255 255 255 255 
-0.0330995 -0.0909658 -0.415992 -0.167127 0.0815225 -0.982559 255 255 255 255 
0.0187292 0.200033 0.299687 -0.452834 0.889075 0.0669831 255 255 255 255 
0.0500898 0.223204 -0.324749 0.0632238 0.994831 -0.0794622 255 255 255 255 
-0.0292963 0.147165 0.249286 -0.764337 0.639889 0.0795696 255 255 255 255 
-0.0730947 0.130167 -0.229517 -0.992839 0.119437 -0.00253237 255 255 255 255 
-0.113733 0.103108 0.0569798 -0.647345 -0.759585 -0.0630451 255 255 255 255 
-0.0664876 0.045081 -0.338679 -0.975673 -0.215268 0.0415011 255 255 255 255 
0.0924922 0.175549 -0.0307419 0.296895 0.941616 0.158783 255 255 255 255 
-0.0376648 -0.0236969 -0.143581 -0.974031 -0.22594 -0.0146199 255 255 255 255 
-0.00150519 0.201017 -0.0884001 -0.14533 0.973776 0.175041 255 255 255 255 
0.117844 0.19048 -0.0878724 0.292595 0.938298 0.184352 255 255 255 255 
0.106273 0.00916317 -0.113085 0.936513 -0.344671 0.0643857 255 255 255 255 
-0.0749153 0.117579 -0.170919 -0.996207 0.0757715 0.0427835 255 255 255 255 
-0.0514305 -0.102011 -0.327535 -0.963379 0.0130548 0.267824 255 255 255 255 
-0.0286485 0.0729578 0.0142164 -0.423399 -0.905804 0.0158901 255 255 255 255 
-0.0684716 0.128793 -0.0906715 -0.975155 0.111384 0.191483 255 255 255 255 
0.000691131 0.211055 -0.187497 -0.0934928 0.993507 0.0648277 255 255 255 255 
-0.0568312 0.132697 0.328736 -0.899644 0.432817 0.0575326 255 255 255 255 
0.0888847 -0.0531961 -0.410008 0.192272 0.0783713 -0.978207 255 255 255 255 
-0.0397909 -0.103474 -0.216537 -0.997708 -0.0637511 -0.0226887 255 255 255 255 
-0.0307147 0.207109 -0.174075 -0.19342 0.978 0.0781313 255 255 255 255 
-0.00229563 0.0262691 0.360752 -0.557694 -0.752876 0.349508 255 255 255 255 
-0.07141 0.12551 -0.10725 -0.982479 0.101419 0.156361 255 255 255 255 
0.109682 0.0589427 -0.396344 0.393896 0.0867881 -0.915049 255 255 255 255 
0.0434319 0.218115 -0.370502 0.0225498 0.977874 -0.207978 255 255 255 255 
0.0293682 0.197431 0.122935 0.0966883 0.994872 -0.0296765 255 255 255 255 
0.11566 -0.190396 -0.397813 0.936243 -0.306416 0.171923 255 255 255 255 
0.108554 0.202552 -0.182308 0.307338 0.950599 0.0436459 255 255 255 255 
0.0185267 0.216179 -0.377369 -0.0640855 0.968325 -0.241328 255 255 255 255 
0.0838979 -0.0917452 -0.177937 0.96115 -0.274029 0.0331511 255 255 255 255 
-0.00935256 0.212464 -0.22902 -0.123621 0.991178 0.0477953 255 255 255 255 
-0.0777836 0.117974 -0.306723 -0.994784 0.0585769 -0.0835123 255 255 255 255 
0.053506 0.0630859 0.0728999 0.189281 -0.97181 0.14056 255 255 255 255 
-0.0432652 0.0800634 -0.0375227 -0.589861 -0.798943 0.117276 255 255 255 255 
0.0501959 -0.094521 -0.070322 0.0791806 -0.816101 0.57246 255 255 255 255 
0.0946941 -0.018635 -0.307599 0.914364 -0.352206 0.199721 255 255 255 255 
0.0835267 -0.0880911 -0.161666 0.961904 -0.270001 0.0428897 255 255 255 255 
-0.06237 0.14776 -0.0754043 -0.954 0.193958 0.228613 255 255 255 255 
0.111167 0.11502 0.193385 0.550164 -0.708738 0.441599 255 255 255 255 
0.119133 -0.124554 -0.397204 0.978909 -0.204295 0.000115255 255 255 255 255 
0.00636116 -0.00367348 -0.410482 -0.0824835 0.0805053 -0.993335 255 255 255 255 
-0.0269937 0.150291 0.25809 -0.78008 0.624396 0.0400614 255 255 255 255 
0.139869 0.104998 -0.21754 0.999079 -0.0381381 0.0196461 255 255 255 255 
0.0614024 0.179705 0.215225 0.398872 0.9103 0.110704 255 255 255 255 
-0.0394156 0.0185139 -0.236639 -0.929391 -0.367802 -0.0308739 255 255 255 255 
-0.0162995 -0.0995847 -0.268177 -0.00796473 -0.626461 0.779412 255 255 255 255 
-0.0401914 -0.0255576 -0.130226 -0.966801 -0.254576 0.0220727 255 255 255 255 
-0.0234203 0.159556 0.226493 -0.674882 0.703578 0.222514 255 255 255 255 
-0.0537525 0.184392 0.140301 -0.441433 0.893609 0.0812386 255 255 255 255 
-0.0465059 0.0724555 -0.0217119 -0.913439 -0.294089 0.28132 255 255 255 255 
-0.0575071 0.15367 -0.063367 -0.941538 0.225835 0.250008 255 255 255 255 
0.0489036 0.126446 -0.409552 0.0794277 0.224733 -0.971178 255 255 255 255 
0.0509606 -0.219298 -0.397408 0.06859 -0.956952 -0.282024 255 255 255 255 
0.0974043 -0.135248 -0.339055 0.861898 -0.235454 0.449103 255 255 255 255 
0.138729 0.109209 -0.320959 0.996196 -0.00673894 -0.0868803 255 255 255 255 
0.133451 0.182883 -0.234809 0.969087 0.24627 0.014893 255 255 255 255 
-0.0569577 0.200499 -0.320428 -0.883213 0.445651 -0.146045 255 255 255 255 
0.0188359 -0.0798218 -0.416364 -0.00143095 0.0822761 -0.996609 255 255 255 255 
0.0888995 -0.174714 -0.417548 0.312822 -0.176654 -0.933239 255 255 255 255 
-0.0567724 0.0876212 0.305045 -0.927306 -0.362197 -0.0944265 255 255 255 255 
0.124283 0.0100422 -0.364549 0.965331 -0.250471 0.0734803 255 255 255 255 
0.141865 0.137334 0.121326 0.817367 0.576117 0.000574931 255 255 255 255 
-0.0716199 0.0676305 -0.255798 -0.978056 -0.208335 0.00177572 255 255 255 255 
0.0635414 -0.132362 -0.240621 -0.0403934 -0.998286 -0.0423561 255 255 255 255 
-0.0642701 -0.0295223 -0.38207 -0.976383 -0.0661881 0.20566 255 255 255 255 
-0.0751115 0.105801 -0.199907 -0.999608 0.0243488 0.0138505 255 255 255 255 
0.00211045 0.0257418 0.367088 -0.563356 -0.739552 0.368365 255 255 255 255 
-0.0198141 0.0954793 -0.405611 -0.255605 0.146872 -0.95556 255 255 255 255 
0.10285 -0.00499717 -0.0976819 0.946115 -0.312844 0.0836348 255 255 255 255 
0.113678 -0.101835 -0.408851 0.231237 0.0439117 -0.971906 255 255 255 255 
0.0449736 0.0379056 -0.013514 -0.104474 -0.427587 0.897917 255 255 255 255 
0.0202472 0.159607 -0.405343 -0.0706903 0.340793 -0.937477 255 255 255 255 
0.0230231 0.0354083 0.264998 0.411996 -0.840901 -0.350921 255 255 255 255 
-0.0381429 -0.120644 -0.230887 -0.998004 -0.0618214 -0.0128974 255 255 255 255 
0.119715 0.0966266 -0.0140136 0.947621 0.312201 0.0674125 255 255 255 255 
0.101905 0.144804 -0.0242472 0.934368 0.317716 0.161285 255 255 255 255 
-0.0624918 0.164351 -0.0926404 -0.944832 0.255752 0.204653 255 255 255 255 
0.0890867 0.178909 0.165179 0.428454 0.901317 0.063679 255 255 255 255 
0.107475 0.0187274 -0.00278559 -0.332782 -0.26083 0.906214 255 255 255 255 
-0.0575749 0.172877 -0.0835961 -0.925713 0.300156 0.230135 255 255 255 255 
-0.0620664 0.125434 -0.0609891 -0.969356 0.0829752 0.231222 255 255 255 255 
0.122676 0.0881963 -0.0182812 0.938561 -0.330641 0.0988877 255 255 255 255 
0.139164 0.149088 -0.307947 0.988135 0.126154 -0.0876043 255 255 255 255 
-0.0669664 0.174502 -0.286854 -0.947113 0.313705 -0.067569 255 255 255 255 
0.127949 0.189464 -0.359016 0.931301 0.274223 -0.239751 255 255 255 255 
-0.00503841 -0.0531171 -0.413404 -0.0870073 0.0820916 -0.99282 255 255 255 255 
-0.074677 0.0832594 -0.202228 -0.996494 -0.0832969 0.00785433 255 255 255 255 
-0.0786411 0.158253 0.0527849 -0.508818 0.840682 -0.185358 255 255 255 255 
-0.0402325 -0.0271504 -0.0529149 -0.881468 -0.371148 0.292 255 255 255 255 
-0.0118494 0.218645 -0.290661 -0.154052 0.987873 -0.0193414 255 255 255 255 
-0.054539 0.128898 -0.034213 -0.966802 0.0840686 0.241303 255 255 255 255 
0.0924466 0.174953 0.110043 0.510208 0.859091 -0.0406367 255 255 255 255 
-0.0304209 -0.123365 -0.153441 -0.966303 -0.236602 0.101377 255 255 255 255 
-0.0433596 0.206297 -0.216377 -0.214683 0.975355 0.0509251 255 255 255 255 
-0.0341658 -0.121309 -0.168613 -0.977552 -0.197556 0.0732361 255 255 255 255 
0.0741705 0.0726558 0.295296 0.770321 -0.631024 -0.0917287 255 255 255 255 
-0.00509838 0.186044 0.382442 0.235007 0.819314 0.522969 255 255 255 255 
-0.0793215 0.129954 0.19809 -0.776204 -0.0627838 0.627349 255 255 255 255 
0.023689 0.22239 -0.308346 -0.0319514 0.99842 -0.0462274 255 255 255 255 
0.0705407 -0.0564866 -0.0286453 -0.110067 -0.529002 0.841453 255 255 255 255 
-0.0431265 -0.0632774 -0.411653 -0.253643 0.0805296 -0.96394 255 255 255 255 
0.0320852 0.185718 0.027785 0.0150288 0.999759 0.0159866 255 255 255 255 
-0.0508829 0.0561585 -0.0438754 -0.911603 -0.302813 0.278001 255 255 255 255 
0.12734 0.189065 -0.0954923 0.328413 0.926453 0.183931 255 255 255 255 
0.0697929 -0.200042 -0.345358 0.212315 -0.682791 0.699085 255 255 255 255 
-0.0132868 0.0623436 0.205166 0.209481 -0.868651 -0.448958 255 255 255 255 
0.125514 0.189783 -0.126681 0.946702 0.295449 0.128317 255 255 255 255 
0.124202 0.137099 0.0446446 0.750757 0.656954 -0.0691078 255 255 255 255 
0.0254876 -0.162928 -0.429845 0.0601604 -0.0576961 -0.99652 255 255 255 255 
0.0570179 0.05376 0.289406 0.658557 -0.721975 -0.212262 255 255 255 255 
-0.127865 0.133167 0.12196 -0.711621 -0.669308 0.213595 255 255 255 255 
0.0949091 0.0397917 -0.40177 0.266533 0.0824962 -0.960289 255 255 255 255 
-0.0578954 0.0199915 -0.100937 -0.960473 -0.257105 0.106719 255 255 255 255 
0.0704573 0.186398 0.16637 0.362546 0.92957 0.0667851 255 255 255 255 
0.007884 -0.126811 -0.138574 -0.0686259 -0.944958 0.319915 255 255 255 255 
-0.0784975 -0.138707 -0.406524 -0.999954 0.00769159 0.00580733 255 255 255 255 
-0.0460822 0.107847 0.398264 -0.805957 0.160999 0.569661 255 255 255 255 
-0.0228501 0.185799 -0.0581073 -0.25406 0.946784 0.197619 255 255 255 255 
-0.0508093 -0.00463711 -0.402059 -0.286407 0.0683782 -0.955665 255 255 255 255 
-0.0534829 0.000129323 -0.347845 -0.964805 -0.177204 0.194296 255 255 255 255 
0.127391 0.0969458 0.0763028 0.592586 -0.797007 0.11671 255 255 255 255 
0.138645 0.119726 -0.26379 0.999843 0.0084694 -0.0155759 255 255 255 255 
-0.0213929 -0.00576917 -0.284349 -0.948776 -0.304252 0.0851702 255 255 255 255 
0.0577452 -0.133254 -0.161869 0.198975 -0.939067 0.28029 255 255 255 255 
-0.0690186 0.155838 0.010399 -0.731957 0.221693 -0.644276 255 255 255 255 
-0.0420751 0.0907022 0.254257 -0.867551 -0.474645 -0.148552 255 255 255 255 
-0.0560108 0.10039 0.284641 -0.909379 -0.393303 -0.135433 255 255 255 255 
0.0831917 -0.10784 -0.1926 0.951804 -0.30539 0.0283863 255 255 255 255 
0.104826 -0.0172454 -0.404165 0.312624 0.0698377 -0.947306 255 255 255 255 
0.13799 0.0979673 -0.326657 0.995286 -0.0393231 -0.0886582 255 255 255 255 
-0.0252972 -0.12242 -0.421586 -0.140237 0.060095 -0.988293 255 255 255 255 
-0.0625562 0.153562 0.0397988 -0.46866 0.859389 -0.204468 255 255 255 255 
-0.0930059 0.114975 0.0213107 -0.728176 0.200348 -0.655454 255 255 255 255 
0.097051 -0.110992 -0.336856 0.878361 -0.21354 0.427649 255 255 255 255 
-0.00298051 -0.131715 -0.226132 -0.190404 -0.980328 -0.0519981 255 255 255 255 
0.0464024 0.134075 0.236185 0.55815 0.0848441 0.825391 255 255 255 255 
0.0802547 -0.0536995 -0.113525 0.951264 -0.307542 -0.0226683 255 255 255 255 
0.00500548 -0.224918 -0.37009 -0.0861124 -0.807386 0.583706 255 255 255 255 
-0.0352699 0.216039 -0.309975 -0.222461 0.972538 -0.0684212 255 255 255 255 
0.0182034 -0.1673 -0.430424 0.0205768 -0.0560128 -0.998218 255 255 255 255 
-0.073772 0.133554 -0.151871 -0.987619 0.137493 0.0755234 255 255 255 255 
0.138312 0.0879666 -0.136126 0.98906 -0.11056 0.0976598 255 255 255 255 
0.0715213 -0.078714 -0.0498837 0.0784457 -0.758197 0.647289 255 255 255 255 
-0.0646491 0.0191825 -0.368074 -0.981404 -0.168362 0.0921997 255 255 255 255 
-0.0542175 0.147164 0.00378503 -0.392668 0.918271 -0.0508976 255 255 255 255 
-0.038242 0.00484123 -0.404785 -0.261016 0.0701223 -0.962784 255 255 255 255 
-0.00415487 0.0444825 0.234165 0.231713 -0.860944 -0.452862 255 255 255 255 
-0.00991146 -0.146247 -0.303368 -0.0666984 -0.623537 0.778944 255 255 255 255 
-0.0319712 -0.145954 -0.425032 -0.183287 0.0144994 -0.982953 255 255 255 255 
-0.0747367 0.085 -0.231633 -0.996033 -0.088986 -0.000479104 255 255 255 255 
0.0358354 0.0618899 0.237279 0.450727 -0.759491 -0.469061 255 255 255 255 
-0.0506223 0.0588989 0.34086 -0.90757 -0.418548 0.0336809 255 255 255 255 
-0.0221437 -0.0374381 -0.240762 -0.998635 -0.0289973 -0.0434429 255 255 255 255 
0.116917 0.135101 -0.0586785 0.951371 0.1931 0.24001 255 255 255 255 
0.139196 0.140007 0.167642 0.938665 0.277144 0.205181 255 255 255 255 
-0.0338078 -0.072288 -0.10345 -0.941236 -0.309377 0.135498 255 255 255 255 
0.0174676 -0.111549 -0.0977821 -0.0254921 -0.873208 0.48668 255 255 255 255 
0.0322832 0.196586 0.310603 0.592635 0.781504 0.195025 255 255 255 255 
-0.095285 0.12625 0.175963 -0.697725 -0.610438 0.374894 255 255 255 255 
-0.0645101 0.17652 -0.245795 -0.955913 0.293248 -0.0153626 255 255 255 255 
0.0210042 0.0786443 0.414701 0.492603 -0.411907 0.7666 255 255 255 255 
0.00246409 0.194715 0.190903 -0.460101 0.865762 0.196881 255 255 255 255 
-0.0167098 0.212687 -0.239441 -0.151101 0.987652 0.0413672 255 255 255 255 
0.121837 0.0323341 -0.277128 0.944664 -0.323847 0.0522838 255 255 255 255 
0.115148 -0.0889455 -0.378516 0.952322 -0.186013 0.241829 255 255 255 255 
0.116942 0.210887 -0.34508 0.36452 0.920854 -0.138395 255 255 255 255 
0.0114937 -0.0438746 -0.285527 0.510841 0.413437 0.753731 255 255 255 255 
-0.0447985 -0.126413 -0.41979 -0.211793 0.0526046 -0.975898 255 255 255 255 
0.0579312 0.149745 -0.406619 0.12799 0.298101 -0.945915 255 255 255 255 
0.121065 0.199217 -0.234177 0.362913 0.931319 0.0306608 255 255 255 255 
-0.0431744 -0.0170244 -0.12127 -0.961674 -0.271524 0.0381836 255 255 255 255 
0.0757954 -0.0832171 -0.268589 0.918807 -0.360944 0.159728 255 255 255 255 
0.0607742 0.156995 0.227629 0.795842 0.605289 -0.0161799 255 255 255 255 
0.129804 0.185035 -0.160848 0.954494 0.287978 0.0775255 255 255 255 255 
0.0916553 0.110113 -0.401995 0.367557 0.163406 -0.915533 255 255 255 255 
0.120323 0.175327 -0.0914897 0.943234 0.252434 0.215839 255 255 255 255 
0.0145393 0.0741081 -0.409627 -0.0720657 0.121001 -0.990033 255 255 255 255 
0.0799253 -0.0332393 -0.284745 0.903331 -0.38253 0.19407 255 255 255 255 
0.104099 -0.0650994 -0.407834 0.221648 0.0723129 -0.972442 255 255 255 255 
-0.0585559 0.153791 0.0959114 -0.945811 0.0265082 -0.323634 255 255 255 255 
-0.0332246 -0.109194 -0.152143 -0.971842 -0.219679 0.0852346 255 255 255 255 
0.0997516 0.138962 -0.397327 0.420674 0.228747 -0.8779 255 255 255 255 
0.0879495 -0.0941694 -0.413764 0.187267 0.0598692 -0.980483 255 255 255 255 
0.0256833 0.0498701 -0.00695075 -0.144829 -0.455927 0.878154 255 255 255 255 
-0.0163202 -0.017847 -0.272136 -0.989206 -0.140768 0.0406963 255 255 255 255 
0.130459 0.151888 -0.103844 0.963059 0.19449 0.186257 255 255 255 255 
0.0260711 0.188056 -0.39655 -0.0438191 0.474627 -0.879096 255 255 255 255 
0.0328215 0.220451 -0.287998 0.00412306 0.999989 0.00242941 255 255 255 255 
0.0838405 0.208071 -0.190222 0.221753 0.974126 0.043638 255 255 255 255 
-0.0719008 0.14338 -0.354216 -0.957402 0.19219 -0.215509 255 255 255 255 
-0.0263512 -0.0708982 -0.414083 -0.14809 0.0826899 -0.985511 255 255 255 255 
0.0953436 0.0826531 0.153761 0.466032 -0.839084 0.280627 255 255 255 255 
0.0608587 -0.175331 -0.424964 0.233329 -0.151377 -0.960543 255 255 255 255 
-0.0369966 -0.0412851 -0.135064 -0.972489 -0.232188 0.0188166 255 255 255 255 
-0.0512004 0.196373 -0.373132 -0.469798 0.514655 -0.717231 255 255 255 255 
0.121623 0.111509 -0.00219401 0.89193 0.452032 -0.0113378 255 255 255 255 
0.0237928 0.0201943 0.362136 0.640192 -0.641589 0.422514 255 255 255 255 
0.0636991 0.0821854 0.385366 0.838044 -0.44375 0.317441 255 255 255 255 
0.0796705 -0.0711586 -0.234539 0.938953 -0.339849 0.0535682 255 255 255 255 
-0.05961 0.136249 -0.0570235 -0.964411 0.117723 0.236756 255 255 255 255 
0.0820773 -0.0231779 -0.22285 0.900061 -0.431881 0.0580445 255 255 255 255 
0.0138353 0.221548 -0.300782 -0.0694983 0.997054 -0.0324414 255 255 255 255 
-0.0240469 0.189401 0.10005 -0.275337 0.958016 -0.0799658 255 255 255 255 
0.135442 0.101086 0.135945 0.565516 -0.79429 0.222024 255 255 255 255 
0.138262 0.0850103 -0.225602 0.991472 -0.129514 0.014455 255 255 255 255 
-0.0158078 0.0626953 -0.407329 -0.222717 0.102848 -0.969443 255 255 255 255 
-0.026604 -0.198301 -0.345635 -0.199709 -0.695967 0.689744 255 255 255 255 
-0.0785881 0.0910877 0.120905 -0.638907 -0.742674 0.200581 255 255 255 255 
-0.00900564 -0.169222 -0.319101 -0.112033 -0.638842 0.761137 255 255 255 255 
3.6438e-007 -0.131328 -0.159858 -0.116044 -0.971748 0.205521 255 255 255 255 
-0.0434567 -0.0857055 -0.319305 -0.964234 0.0315253 0.263172 255 255 255 255 
-0.0562743 0.0273066 -0.325865 -0.958808 -0.261149 0.111748 255 255 255 255 
0.0828151 0.0700997 0.0448803 0.392431 -0.883529 0.255685 255 255 255 255 
-0.0737239 0.0776204 -0.142315 -0.993832 -0.0925144 0.0611537 255 255 255 255 
0.0345977 0.207294 -0.12225 0.0113798 0.992825 0.11903 255 255 255 255 
0.144498 0.122664 0.0755048 0.792364 0.607423 -0.0565304 255 255 255 255 
0.137218 0.141443 -0.34936 0.976293 0.12614 -0.175901 255 255 255 255 
-0.0730542 0.0721906 -0.216874 -0.988078 -0.153951 0.00105222 255 255 255 255 
0.139309 0.0971048 -0.13582 0.993041 -0.0585843 0.102165 255 255 255 255 
-0.00161943 0.218301 -0.277131 -0.117423 0.993056 0.00713465 255 255 255 255 
-0.0595866 0.0802033 0.344828 -0.949508 -0.310125 0.0475088 255 255 255 255 
-0.0691737 0.160651 -0.169456 -0.969311 0.238569 0.0593321 255 255 255 255 
0.0547408 0.0590993 0.373262 0.652438 -0.546258 0.525287 255 255 255 255 
0.0490935 0.220941 -0.355888 0.0455943 0.98424 -0.170858 255 255 255 255 
-0.0452767 0.138569 0.227917 -0.676173 0.693591 0.248437 255 255 255 255 
0.029309 -0.0882475 -0.417516 0.0300935 0.0779819 -0.9965 255 255 255 255 
-0.0776605 0.118457 -0.321041 -0.992528 0.0535148 -0.109651 255 255 255 255 
0.028092 0.189553 0.0691835 0.015993 0.998127 -0.0590516 255 255 255 255 
0.038166 0.0866708 -0.410045 0.0317713 0.136912 -0.990074 255 255 255 255 
0.0774562 -0.0423789 -0.204688 0.934956 -0.352387 0.0409924 255 255 255 255 
-0.0308292 0.159014 0.294782 -0.819865 0.57246 -0.0105274 255 255 255 255 
0.0925119 0.216622 -0.358033 0.231523 0.954263 -0.189156 255 255 255 255 
-0.0606924 -0.0491851 -0.371588 -0.963448 -0.0344574 0.265669 255 255 255 255 
0.00423929 0.221363 -0.305181 -0.105477 0.993354 -0.0460676 255 255 255 255 
0.000430358 -0.162495 -0.430158 -0.0642803 -0.0300037 -0.997481 255 255 255 255 
0.0585658 -0.129827 -0.2613 -0.0622993 -0.996493 -0.0558664 255 255 255 255 
-0.0150882 0.0743352 0.198868 -0.560453 -0.777249 0.285965 255 255 255 255 
-0.0760683 0.110753 0.180008 -0.655037 -0.675397 0.338772 255 255 255 255 
0.0614894 0.199129 -0.0773297 0.119856 0.980481 0.155855 255 255 255 255 
-0.034339 -0.0853964 -0.137543 -0.969907 -0.231666 0.0749089 255 255 255 255 
-0.0441345 -0.00737134 -0.130924 -0.964504 -0.263856 0.0105461 255 255 255 255 
-0.00768043 0.175217 0.267252 -0.749408 0.659982 0.0530203 255 255 255 255 
0.0834309 0.126837 0.319543 0.8811 0.463859 0.092182 255 255 255 255 
0.00812131 -0.136288 -0.198978 -0.138251 -0.989843 0.0331365 255 255 255 255 
-0.054268 -0.0886431 -0.339801 -0.959616 0.017465 0.280769 255 255 255 255 
0.0773748 -0.127896 -0.167303 0.944773 -0.322594 0.0577713 255 255 255 255 
-0.107759 0.1149 0.124941 -0.68558 -0.694278 0.218996 255 255 255 255 
0.0576878 0.202104 -0.0897439 0.098505 0.984067 0.148017 255 255 255 255 
0.118379 -0.170901 -0.390997 0.943177 -0.266307 0.198739 255 255 255 255 
0.000225545 -0.196074 -0.337294 -0.0888596 -0.704691 0.703927 255 255 255 255 
0.0811025 -0.103762 -0.416037 0.180725 0.0507065 -0.982226 255 255 255 255 
0.106987 0.152592 0.0427999 0.676625 0.734833 -0.0468945 255 255 255 255 
0.079484 0.209736 -0.226845 0.213934 0.976105 0.0380977 255 255 255 255 
-0.0597512 0.0867932 0.139708 -0.689889 -0.665223 0.285537 255 255 255 255 
0.00482355 0.177914 0.0257978 -0.222568 0.97412 -0.0394043 255 255 255 255 
0.14051 0.129007 -0.195978 0.996405 0.0744697 0.0403993 255 255 255 255 
0.0895984 -0.198019 -0.412675 0.339288 -0.260523 -0.903887 255 255 255 255 
0.0344432 0.191026 0.0808815 0.0696403 0.995708 -0.0609568 255 255 255 255 
-0.0534736 0.141969 0.343518 -0.895401 0.426997 0.12622 255 255 255 255 
0.0871909 -0.221642 -0.376649 0.107955 -0.946694 -0.303506 255 255 255 255 
-0.0754253 0.103152 -0.248171 -0.999937 -0.00133955 -0.0111273 255 255 255 255 
-0.075157 0.096355 -0.222923 -0.999673 -0.0255445 0.00145158 255 255 255 255 
0.0135835 -0.00382807 -0.0255136 -0.243997 -0.396592 0.884975 255 255 255 255 
-0.0118074 0.20729 -0.132735 -0.156859 0.979651 0.125215 255 255 255 255 
-0.0896801 0.10437 0.00969702 -0.5894 -0.774952 -0.228161 255 255 255 255 
-0.0603471 -0.213441 -0.413217 -0.266466 -0.958067 -0.105377 255 255 255 255 
0.0791255 -0.0451709 -0.023892 -0.164762 -0.405306 0.899211 255 255 255 255 
0.0742517 -0.11904 -0.281718 0.901684 -0.37881 0.208491 255 255 255 255 
-0.0372913 0.0186787 -0.246752 -0.934523 -0.355555 -0.0157168 255 255 255 255 
-0.0631921 0.168188 -0.364772 -0.914762 0.314202 -0.253945 255 255 255 255 
-0.102043 0.101242 0.0311674 -0.605754 -0.771658 -0.193925 255 255 255 255 
-0.0761138 -0.131162 -0.38228 -0.994462 0.00165422 0.105088 255 255 255 255 
0.107127 0.00680114 -0.0874459 0.949475 -0.294166 0.109377 255 255 255 255 
-0.0600904 0.0275537 -0.0962726 -0.961671 -0.244171 0.124778 255 255 255 255 
0.11811 0.0340155 -0.111441 0.94674 -0.310237 0.0862312 255 255 255 255 
-0.0132402 0.185234 -0.0488539 -0.233778 0.954302 0.186159 255 255 255 255 
-0.00717725 0.210326 -0.178108 -0.123705 0.989731 0.0716232 255 255 255 255 
-0.0565603 -0.211371 -0.361223 -0.366432 -0.886775 0.281706 255 255 255 255 
-0.0235632 -0.0252063 -0.219686 -0.993223 -0.0940782 -0.0682413 255 255 255 255 
0.0682264 0.0845637 0.248929 0.621819 -0.684596 -0.380354 255 255 255 255 
0.0450673 0.0602782 0.0809088 0.176985 -0.975742 0.128855 255 255 255 255 
0.0178494 0.0556999 0.0679438 -0.0334735 -0.995203 0.0919261 255 255 255 255 
0.0733772 0.0639044 0.0257317 0.145914 -0.914441 0.3775 255 255 255 255 
-0.039716 0.168772 -0.390418 -0.385089 0.37497 -0.84327 255 255 255 255 
-0.0139981 0.17017 -0.000171304 -0.263465 0.963719 0.0428125 255 255 255 255 
0.0268075 0.0275523 0.300067 0.357874 -0.910251 -0.208255 255 255 255 255 
0.0310167 0.0220293 0.33103 0.642448 -0.764687 0.050134 255 255 255 255 
-0.0597338 0.0640258 -0.0614874 -0.945558 -0.220143 0.239704 255 255 255 255 
0.0319885 0.0543764 0.0958073 0.148876 -0.982079 0.115569 255 255 255 255 
0.0192404 0.0408012 -0.0117772 -0.169794 -0.437063 0.883259 255 255 255 255 
0.0764096 -0.10892 -0.417458 0.176227 0.0443203 -0.983351 255 255 255 255 
-0.062919 -0.125344 -0.343003 -0.973729 -0.00667455 0.227612 255 255 255 255 
-0.0416691 0.0900619 0.192205 -0.621116 -0.719738 0.310149 255 255 255 255 
0.0115029 -0.116589 -0.109456 -0.030894 -0.896784 0.44139 255 255 255 255 
0.0186372 0.0288984 -0.409612 -0.0468552 0.0903305 -0.994809 255 255 255 255 
0.0251991 -0.0183299 -0.411242 -0.0135237 0.0841405 -0.996362 255 255 255 255 
0.0719474 -0.158133 -0.423169 0.243372 -0.10003 -0.964761 255 255 255 255 
0.0757797 0.123298 0.218915 0.587459 0.115469 0.800974 255 255 255 255 
0.131352 0.191136 -0.335344 0.946689 0.267608 -0.179346 255 255 255 255 
0.0124619 0.0689686 0.217294 0.341769 -0.75439 -0.560437 255 255 255 255 
0.12831 0.0394268 -0.208332 0.927641 -0.372229 0.0304653 255 255 255 255 
0.138083 0.109493 -0.339832 0.991249 0.0112259 -0.131529 255 255 255 255 
0.12306 0.194647 -0.371696 0.905212 0.302123 -0.298853 255 255 255 255 
-0.0755725 0.116802 0.00608744 -0.75014 0.128647 -0.648645 255 255 255 255 
0.132928 0.0669103 -0.368211 0.986612 -0.0930204 -0.133957 255 255 255 255 
0.0425109 0.191701 -0.0377269 0.0872072 0.986104 0.141401 255 255 255 255 
-0.0565998 0.16018 0.0515517 -0.456572 0.864728 -0.209255 255 255 255 255 
-0.0539673 0.201168 -0.170672 -0.44035 0.893698 0.085994 255 255 255 255 
0.00531527 0.18553 0.239387 -0.669965 0.726973 0.150522 255 255 255 255 
0.128758 0.177436 -0.123065 0.954715 0.263726 0.13772 255 255 255 255 
0.0719441 -0.120205 -0.294362 0.854019 -0.339172 0.394479 255 255 255 255 
0.13319 0.0663515 -0.277457 0.983336 -0.181704 0.00589078 255 255 255 255 
0.0960472 0.217995 -0.344238 0.258945 0.954493 -0.147954 255 255 255 255 
0.0674192 -0.0572415 -0.413134 0.131212 0.0817897 -0.987975 255 255 255 255 
-0.0177563 -0.131649 -0.184311 -0.178082 -0.980449 0.0837018 255 255 255 255 
0.0795814 0.125314 -0.405185 0.282042 0.206841 -0.93684 255 255 255 255 
-0.0719289 0.10604 -0.104768 -0.988106 0.0226684 0.152096 255 255 255 255 
-0.068574 0.0489889 -0.351684 -0.980911 -0.192699 0.0260788 255 255 255 255 
0.0669811 -0.137069 -0.188578 0.0267821 -0.994753 0.0987423 255 255 255 255 
0.0711952 0.00350629 -0.0190366 -0.155575 -0.337482 0.928387 255 255 255 255 
-0.0735183 0.12867 -0.240918 -0.993533 0.113069 -0.010357 255 255 255 255 
-0.0746984 0.113016 -0.210801 -0.998673 0.0508882 0.00794482 255 255 255 255 
0.111643 0.143282 -0.0526607 0.941205 0.236286 0.241457 255 255 255 255 
-0.0325512 -0.0188008 -0.17886 -0.983428 -0.170857 -0.0606441 255 255 255 255 
0.0153389 -0.114524 -0.421942 -0.00290403 0.0592538 -0.998239 255 255 255 255 
-0.0711903 0.144987 -0.216561 -0.984717 0.173958 0.00840299 255 255 255 255 
-0.0746422 0.078889 -0.29513 -0.987854 -0.154597 -0.0156287 255 255 255 255 
-0.00438948 0.0654358 0.20419 0.229761 -0.859019 -0.457488 255 255 255 255 
-0.0616269 0.0761301 -0.0614816 -0.957946 -0.165901 0.234128 255 255 255 255 
-0.10109 0.150524 0.0386822 -0.708151 0.419531 -0.567906 255 255 255 255 
0.0760731 0.0644811 -0.405183 0.209213 0.101695 -0.972568 255 255 255 255 
0.122941 0.00932586 -0.354674 0.962351 -0.259007 0.0824375 255 255 255 255 
0.12865 0.0631938 -0.385575 0.568142 0.0783266 -0.819194 255 255 255 255 
-0.0676389 -0.0245851 -0.397387 -0.993251 -0.0189101 -0.114431 255 255 255 255 
0.0809006 0.0955596 0.346935 0.901038 -0.403328 0.15955 255 255 255 255 
0.0808302 -0.111465 -0.157197 0.948791 -0.308369 0.0685894 255 255 255 255 
0.115638 0.158153 -0.386495 0.491775 0.274419 -0.826348 255 255 255 255 
-0.0433796 0.00342506 -0.159058 -0.966914 -0.252445 -0.036721 255 255 255 255 
0.127921 0.0467965 -0.279262 0.96374 -0.264952 0.0317124 255 255 255 255 
-0.073826 0.129041 -0.183487 -0.992107 0.121019 0.032823 255 255 255 255 
-0.0198999 -0.0529873 -0.049064 -0.405078 -0.533187 0.742713 255 255 255 255 
-0.0396647 0.0616895 0.285526 -0.884166 -0.447289 -0.134843 255 255 255 255 
0.141348 0.114787 -0.187859 0.998835 0.0182049 0.0446995 255 255 255 255 
0.102066 0.0200309 -0.401659 0.290355 0.0751513 -0.953964 255 255 255 255 
0.0258746 -0.211963 -0.423869 0.172554 -0.349213 -0.921019 255 255 255 255 
0.117252 0.123972 0.192829 0.674022 0.127245 0.727669 255 255 255 255 
-0.0372267 0.072381 0.0302454 -0.428182 -0.902658 -0.0432286 255 255 255 255 
-0.077651 -0.202085 -0.378998 -0.997114 -0.0745229 -0.0145172 255 255 255 255 
0.0586761 0.0748661 0.248279 0.58614 -0.702835 -0.403066 255 255 255 255 
-0.0605506 0.157102 -0.383095 -0.468962 0.333038 -0.818022 255 255 255 255 
-0.0701542 0.0784854 0.0974488 -0.560279 -0.824443 0.0798761 255 255 255 255 
-0.0365127 -0.0624162 -0.0923307 -0.921693 -0.341806 0.183439 255 255 255 255 
0.0100183 -0.140784 -0.298386 0.0516659 -0.613329 0.788136 255 255 255 255 
-0.0575868 0.196949 -0.245455 -0.93774 0.347004 -0.0152142 255 255 255 255 
