ply
format ascii 1.0
comment VCGLIB generated
element vertex 627
property float x
property float y
property float z
property float nx
property float ny
property float nz
property uchar red
property uchar green
property uchar blue
property uchar alpha
element face 0
property list uchar int vertex_indices
end_header
0.0176061 0.0680841 -0.436498 0.191786 0.785819 -0.587969 255 255 255 255 
0.0373193 -0.0708323 0.233447 0.063199 -0.972618 0.223651 255 255 255 255 
-0.102629 -0.0268528 -0.461127 -0.081321 -0.277693 -0.957222 255 255 255 255 
0.0901796 0.0537137 0.0913478 0.340231 0.940215 -0.0154535 255 255 255 255 
0.0497592 0.0676133 -0.132814 0.270885 0.954519 -0.124562 255 255 255 255 
-0.0960276 0.0707357 0.15915 -0.182724 0.976135 0.117356 255 255 255 255 
0.132201 -0.0344212 0.0803406 0.457702 -0.863648 -0.211238 255 255 255 255 
0.14259 0.0481604 -0.0961733 0.619093 0.783001 -0.0602787 255 255 255 255 
-0.027 0.0709625 0.140629 -0.00313437 0.997301 0.0733595 255 255 255 255 
0.16641 0.00606106 -0.141232 0.994851 0.10022 -0.0151097 255 255 255 255 
-0.0847223 0.00380606 -0.461237 -0.0142305 -0.0862157 -0.996175 255 255 255 255 
0.0343967 0.0679974 -0.429179 0.176358 0.795226 -0.580098 255 255 255 255 
0.0606106 -0.0208315 0.311735 0.464811 -0.649457 0.601795 255 255 255 255 
-0.00527372 0.0748154 0.0571828 0.0733188 0.997101 0.0203552 255 255 255 255 
-0.14552 0.092431 -0.174575 -0.614212 0.788629 0.0284166 255 255 255 255 
0.161329 0.0118523 0.052747 0.997774 -0.0177854 0.0642761 255 255 255 255 
-0.0317541 0.0828369 -0.310263 0.445776 0.89501 -0.0154983 255 255 255 255 
-0.0378981 0.0862406 -0.361094 0.287863 0.954922 0.0725262 255 255 255 255 
-0.0636729 0.0688543 0.276174 -0.200931 0.934064 0.295215 255 255 255 255 
-0.0850596 0.0971333 -0.374936 0.0215526 0.995066 -0.0968443 255 255 255 255 
-0.0408043 0.0204611 0.404705 -0.944195 0.17157 0.281175 255 255 255 255 
0.095234 -0.0793951 -0.0875771 0.548661 -0.834318 -0.0537109 255 255 255 255 
-0.144391 0.00784865 -0.260165 -0.00127562 -0.99978 -0.0209325 255 255 255 255 
-0.0478518 0.0867334 -0.32992 0.314909 0.948978 -0.0165489 255 255 255 255 
0.0510288 0.0621082 0.0390763 0.22625 0.973465 0.0342881 255 255 255 255 
0.139345 0.0381734 0.0503373 0.654324 0.749746 0.0986935 255 255 255 255 
-0.127073 0.0905496 -0.418979 -0.495474 0.816339 -0.296812 255 255 255 255 
-0.0352911 0.0799242 -0.0543605 0.0628902 0.986875 0.148735 255 255 255 255 
0.06961 0.0595744 0.0363463 0.277634 0.959686 0.0438515 255 255 255 255 
-0.0918885 0.101624 -0.119873 -0.0526758 0.983087 0.175401 255 255 255 255 
0.060421 0.0585201 -0.162559 0.947862 0.164169 -0.273141 255 255 255 255 
0.00708574 0.0622899 0.302528 0.0802083 0.96158 0.262547 255 255 255 255 
-0.135674 0.0904257 -0.273759 -0.589898 0.807278 -0.0179781 255 255 255 255 
-0.158451 0.0245415 -0.15579 -0.977264 -0.208184 0.0401842 255 255 255 255 
-0.0138372 0.0688516 0.250178 0.0442096 0.993124 0.108398 255 255 255 255 
0.0360732 -0.00777233 0.434102 0.948681 0.126263 0.289934 255 255 255 255 
-0.0733249 0.0135032 0.32231 -0.730171 -0.294876 0.616359 255 255 255 255 
0.0802229 -0.0634505 0.130909 0.200105 -0.978913 -0.0410812 255 255 255 255 
0.129787 0.0345361 0.262848 0.542428 0.783243 0.303813 255 255 255 255 
0.0837369 0.0557801 0.192823 0.267197 0.961004 0.0712541 255 255 255 255 
-0.0482135 0.00634164 -0.177267 -0.0640783 -0.962619 -0.263171 255 255 255 255 
-0.0949502 -0.0371272 -0.372173 -0.0900117 -0.85 0.519036 255 255 255 255 
-0.0283089 -0.0490278 0.421818 -0.376987 -0.627518 0.68125 255 255 255 255 
-0.103071 -0.0396207 -0.458412 -0.077795 -0.379066 -0.922094 255 255 255 255 
0.0388039 -0.0292495 -0.449118 0.102574 -0.154504 -0.982653 255 255 255 255 
-0.0305433 0.0855967 -0.100913 0.126613 0.984301 0.122966 255 255 255 255 
0.0701478 0.0212276 -0.1545 0.95262 0.143493 -0.26819 255 255 255 255 
-0.0625028 -0.0163804 0.298766 -0.492746 -0.750749 0.439974 255 255 255 255 
0.0306925 -0.0216903 0.368833 0.892112 -0.449274 0.0478466 255 255 255 255 
-0.0313763 0.0370067 -0.318404 0.260078 -0.679783 0.685751 255 255 255 255 
0.0359274 0.065746 -0.167457 0.361684 0.914014 -0.183747 255 255 255 255 
-0.140226 0.0221281 0.216227 -0.978685 -0.164484 0.122969 255 255 255 255 
-0.0441201 0.0862179 -0.316702 0.359123 0.932683 -0.0336545 255 255 255 255 
-0.0446713 -0.0617249 -0.446967 -0.031171 -0.601385 -0.798351 255 255 255 255 
0.034703 -0.0163213 0.381798 0.935169 -0.3499 0.0550328 255 255 255 255 
-0.0610932 0.0775212 -0.0289738 -0.0607644 0.990828 0.120693 255 255 255 255 
0.100139 0.0604303 -0.157126 -0.124668 0.827898 -0.546848 255 255 255 255 
-0.0280213 -0.0575923 0.0439028 -0.226563 -0.972478 0.0543708 255 255 255 255 
0.0882533 0.0547025 0.125508 0.267905 0.963373 -0.0118444 255 255 255 255 
0.131122 0.0412392 0.075146 0.599925 0.800009 0.00869527 255 255 255 255 
-0.0404584 -0.00648301 0.429085 -0.961345 0.0786971 0.263861 255 255 255 255 
0.097809 -0.0434243 0.242614 0.501419 -0.807215 0.311421 255 255 255 255 
0.140083 0.052503 -0.408885 0.739383 0.49646 0.454797 255 255 255 255 
0.128304 0.0569701 -0.0770219 0.514593 0.857158 -0.0217802 255 255 255 255 
-0.0670125 0.0784284 -0.0340074 -0.0789921 0.984072 0.159254 255 255 255 255 
-0.0189349 0.0850997 -0.140518 0.201881 0.979243 -0.0181059 255 255 255 255 
-0.0118328 -0.0504803 0.432485 0.407174 -0.90694 0.108025 255 255 255 255 
-0.0670487 0.0705409 -0.451969 0.0211032 0.37844 -0.925385 255 255 255 255 
-0.158599 0.0705279 -0.0998036 -0.702734 0.624504 0.340821 255 255 255 255 
0.0225091 -0.0365707 0.422369 0.48981 -0.864634 0.111778 255 255 255 255 
0.0477241 0.0192274 -0.241334 0.673132 0.732499 -0.101678 255 255 255 255 
0.0972778 -0.0371106 -0.394154 -0.769355 -0.519621 0.3716 255 255 255 255 
0.0267179 0.00992384 -0.183747 -0.112047 -0.853621 -0.508701 255 255 255 255 
-0.0939876 0.100372 -0.181582 0.0118215 0.99991 -0.00629797 255 255 255 255 
-0.122418 0.0508181 0.203731 -0.811606 0.578868 0.0787892 255 255 255 255 
0.0816008 -0.0492189 0.263049 0.378502 -0.847383 0.372396 255 255 255 255 
-0.0619103 -0.0444915 0.0608396 -0.444326 -0.891781 0.0854482 255 255 255 255 
-0.127448 0.0957682 -0.218011 -0.441275 0.897063 -0.0235238 255 255 255 255 
-0.150231 0.0117707 -0.259151 -0.900833 -0.417551 0.118961 255 255 255 255 
0.0935888 0.0641454 -0.0773466 0.296472 0.954558 -0.0303803 255 255 255 255 
0.016475 0.0754794 -0.149155 0.281379 0.954115 -0.102424 255 255 255 255 
0.0040586 0.0240015 -0.334524 0.934143 -0.350823 -0.0655756 255 255 255 255 
0.00538607 0.0180694 -0.370864 0.847719 -0.039585 0.528966 255 255 255 255 
0.0112066 0.0450619 0.406852 0.268035 0.952623 0.143758 255 255 255 255 
0.141964 0.0123121 -0.197245 0.400686 -0.853923 -0.332064 255 255 255 255 
-0.0553701 0.076507 -0.00538382 -0.0941166 0.995549 -0.00487518 255 255 255 255 
-0.0477334 0.0765421 -0.0121549 -0.049697 0.998545 0.0209381 255 255 255 255 
-0.0614045 -0.0748359 -0.435657 -0.04403 -0.689511 -0.722935 255 255 255 255 
0.0610936 -0.0659928 0.223061 0.219925 -0.95383 0.204554 255 255 255 255 
0.109998 0.0623761 -0.110776 0.396064 0.911313 -0.112435 255 255 255 255 
0.0877202 -0.0820055 -0.0783921 0.297358 -0.954766 -0.000230257 255 255 255 255 
0.128178 0.0388504 0.244275 0.482893 0.844642 0.23107 255 255 255 255 
-0.16242 0.0703161 -0.125729 -0.741217 0.624181 0.246975 255 255 255 255 
0.134796 0.0365268 0.229611 0.49813 0.840466 0.21327 255 255 255 255 
0.0124635 0.0763194 -0.128965 0.23463 0.971053 -0.0447695 255 255 255 255 
0.0114474 -0.0747795 -0.0764685 -0.174811 -0.980745 -0.0870648 255 255 255 255 
0.0452186 0.0447614 -0.191972 0.573829 0.796553 -0.190326 255 255 255 255 
-0.132892 0.0333612 0.243197 -0.833117 0.5235 0.178502 255 255 255 255 
-0.0379433 0.00556238 0.433895 -0.955355 0.134279 0.263184 255 255 255 255 
0.0745232 -0.0595255 0.224039 0.322845 -0.918361 0.228876 255 255 255 255 
0.152916 0.0476445 -0.414887 0.766518 0.442913 0.465057 255 255 255 255 
-0.0490815 -0.0528212 0.0414208 -0.324491 -0.943027 0.0735222 255 255 255 255 
0.114187 0.060239 -0.0659975 0.397355 0.917628 0.00823908 255 255 255 255 
-0.0778065 0.0777572 -0.0315664 -0.125102 0.977645 0.168999 255 255 255 255 
-0.163871 0.0565434 -0.101004 -0.924076 -0.134609 0.35772 255 255 255 255 
0.158158 -0.00596316 0.102836 0.998873 -0.0255101 0.0400356 255 255 255 255 
0.0376373 0.0116981 -0.185802 -0.117532 -0.829446 -0.546083 255 255 255 255 
-0.117847 0.0570555 0.199648 -0.817478 0.571511 0.0714424 255 255 255 255 
0.148391 0.0210786 0.224888 0.951578 -0.166607 0.258345 255 255 255 255 
0.0859806 0.0653581 -0.0863838 0.279697 0.958288 -0.05877 255 255 255 255 
0.00600808 0.0325587 -0.340518 0.952939 -0.298573 -0.052553 255 255 255 255 
-0.0601689 0.0822081 -0.0530568 -0.0348311 0.975091 0.219052 255 255 255 255 
0.055071 -0.0681583 0.213562 0.174324 -0.971888 0.158258 255 255 255 255 
0.104253 0.0637234 -0.10022 0.361011 0.927827 -0.0938465 255 255 255 255 
0.0942056 0.0505336 -0.202782 0.096461 0.929341 -0.3564 255 255 255 255 
0.0145869 0.0183906 -0.203502 0.124806 -0.98625 -0.108325 255 255 255 255 
-0.125617 0.0461979 0.23535 -0.801986 0.580717 0.139948 255 255 255 255 
0.154501 0.0266356 -0.398722 0.785202 0.385277 0.484788 255 255 255 255 
-0.0854233 -0.0290097 0.0252408 -0.947147 -0.305129 0.0990398 255 255 255 255 
-0.163065 0.0453287 -0.103776 -0.924501 -0.166697 0.342796 255 255 255 255 
-0.0283796 -0.0591394 0.017433 -0.210527 -0.974842 0.0732222 255 255 255 255 
0.0804977 0.0656293 -0.0818926 0.263377 0.963651 -0.0448319 255 255 255 255 
0.0906793 -0.053287 0.19372 0.391818 -0.893516 0.219334 255 255 255 255 
0.101826 0.062846 -0.0707475 0.328879 0.944306 -0.0111771 255 255 255 255 
-0.164461 0.0427298 -0.128762 -0.969358 -0.181509 0.165529 255 255 255 255 
0.0994547 0.0641765 -0.085375 0.328795 0.942865 -0.0538468 255 255 255 255 
-0.159276 0.0201619 -0.131916 -0.966627 -0.219333 0.132384 255 255 255 255 
0.109728 0.0618719 -0.07269 0.373121 0.927663 -0.0149437 255 255 255 255 
-0.144898 0.00703468 -0.12517 -0.450209 -0.889109 0.082437 255 255 255 255 
0.110597 0.0625467 -0.0958492 0.391413 0.917065 -0.076074 255 255 255 255 
-0.16148 0.0469621 -0.164929 -0.98786 -0.153679 0.0227157 255 255 255 255 
-0.0554771 0.0817218 0.0639251 -0.13573 0.990639 0.0145277 255 255 255 255 
0.00875415 0.0524375 -0.280123 0.701764 0.705676 -0.09772 255 255 255 255 
-0.102674 0.0748341 0.0876892 -0.33183 0.943297 0.00888125 255 255 255 255 
-0.0416748 -0.0529602 0.0663096 -0.36594 -0.928749 0.0592753 255 255 255 255 
-0.0325516 0.0394843 0.419196 -0.929602 0.255986 0.265163 255 255 255 255 
-0.0235719 -0.0207626 -0.364447 0.18801 -0.700205 0.688742 255 255 255 255 
-0.158759 0.0541211 -0.26883 -0.90289 0.428132 0.0386411 255 255 255 255 
0.0718566 -0.077593 -0.155583 0.373437 -0.92563 -0.0612728 255 255 255 255 
0.0650126 -0.0650864 0.18499 0.200614 -0.974952 0.0960371 255 255 255 255 
0.143893 0.0481202 -0.0762845 0.62213 0.78252 -0.0248416 255 255 255 255 
-0.0308481 0.0698214 0.161769 -0.0206175 0.998685 0.0469465 255 255 255 255 
0.0472108 -0.00948457 -0.450136 0.106456 -0.0367497 -0.993638 255 255 255 255 
0.0204868 -0.0160149 -0.144212 -0.131961 -0.690984 -0.710723 255 255 255 255 
-0.106416 0.0643376 0.265516 -0.696125 0.653907 0.296337 255 255 255 255 
-0.0368792 -0.0484368 0.137079 -0.533907 -0.84508 -0.0279878 255 255 255 255 
-0.0767467 -0.0409109 0.034942 -0.513599 -0.852383 0.0982848 255 255 255 255 
-0.0410777 0.00218402 0.423432 -0.96029 0.0850723 0.265718 255 255 255 255 
-0.115308 -0.00857722 0.258536 -0.728985 -0.680267 0.0762803 255 255 255 255 
-0.0410186 -0.012373 0.352119 -0.518193 -0.830715 -0.203443 255 255 255 255 
-0.0525396 0.0722946 0.147159 -0.0901443 0.99064 0.102499 255 255 255 255 
-0.0109334 -0.0200745 0.317664 -0.272488 -0.923043 0.271555 255 255 255 255 
-0.0106098 0.048913 0.434353 0.271568 0.948127 0.165243 255 255 255 255 
-0.111954 -0.0281945 -0.359137 -0.164679 -0.860318 0.482424 255 255 255 255 
-0.0319928 -0.00939866 -0.357891 0.216627 -0.709146 0.670958 255 255 255 255 
0.079463 0.0478555 -0.119024 0.948092 0.113956 -0.296875 255 255 255 255 
0.0676832 0.0475643 0.315246 0.346258 0.876092 0.335513 255 255 255 255 
-0.00185665 -0.0477155 0.371315 -0.468001 -0.823588 -0.320433 255 255 255 255 
-0.0569294 -0.0852754 -0.424908 -0.0535964 -0.731677 -0.679542 255 255 255 255 
-0.0898452 0.0496576 -0.0317424 -0.977787 0.188431 0.0917912 255 255 255 255 
0.168017 0.0159858 -0.434261 0.383265 0.218199 -0.897495 255 255 255 255 
0.0291411 0.0223585 -0.208284 0.201654 -0.979222 -0.0214402 255 255 255 255 
0.162571 0.0279449 -0.126651 0.777655 0.624514 -0.0723585 255 255 255 255 
-0.159799 0.0778486 -0.168509 -0.741934 0.664871 0.086487 255 255 255 255 
0.069408 0.0572729 0.173202 0.20593 0.977904 0.0360051 255 255 255 255 
-0.00481837 0.0813572 -0.139259 0.224539 0.973706 -0.0384454 255 255 255 255 
0.120822 0.0595663 -0.0834317 0.444301 0.895004 -0.0395466 255 255 255 255 
-0.132595 0.0363232 0.196407 -0.820269 0.566321 0.0802471 255 255 255 255 
0.107195 0.063214 -0.0861004 0.37014 0.927489 -0.0525332 255 255 255 255 
0.0248561 0.0304747 -0.400191 0.862437 0.01372 0.505979 255 255 255 255 
0.118704 0.0431681 0.252521 0.467315 0.850462 0.241516 255 255 255 255 
0.0433474 0.0431796 -0.217318 0.422267 0.878897 -0.221878 255 255 255 255 
-0.0233638 0.0846246 -0.174567 0.250721 0.963751 -0.0912341 255 255 255 255 
0.128591 0.0565511 -0.100963 0.51447 0.854473 -0.0720882 255 255 255 255 
0.103768 0.0611848 -0.0550842 0.333671 0.942373 0.0244301 255 255 255 255 
0.0369108 -0.0733294 -0.0426635 -0.0354351 -0.995206 0.0911553 255 255 255 255 
0.0807657 0.0595982 0.00409157 0.267373 0.961411 0.0648118 255 255 255 255 
0.10847 -0.0315229 -0.171489 0.844907 -0.384841 -0.371523 255 255 255 255 
-0.0740447 -0.0199247 -0.457937 0.00234371 -0.248062 -0.968741 255 255 255 255 
0.081605 -0.0182706 0.306402 0.494392 -0.593077 0.635481 255 255 255 255 
-0.0917851 0.0378324 0.0574939 -0.99964 -0.00767171 0.0256995 255 255 255 255 
0.0709056 0.0664375 -0.101457 0.259746 0.961547 -0.0892126 255 255 255 255 
0.158163 0.0141777 -0.438749 0.362383 0.213256 -0.907304 255 255 255 255 
-0.0262807 0.0819839 -0.281459 0.477565 0.876832 -0.0556565 255 255 255 255 
0.0186764 0.0682648 0.00270075 0.141443 0.989432 0.0319048 255 255 255 255 
-0.0187163 0.0162447 -0.304122 0.346652 -0.888783 0.299828 255 255 255 255 
0.00610319 -0.0650438 0.12323 -0.157551 -0.986555 -0.0434478 255 255 255 255 
-0.0945916 0.0762886 0.0530154 -0.266157 0.963787 -0.0165761 255 255 255 255 
0.0723573 0.0571746 0.19159 0.226942 0.972488 0.0525772 255 255 255 255 
0.00900721 -0.0661178 0.13841 -0.148491 -0.987924 -0.0442465 255 255 255 255 
-0.125769 0.102417 -0.138456 -0.19942 0.973815 0.109163 255 255 255 255 
-0.0185983 0.0735115 0.101698 0.0411149 0.996851 0.0678071 255 255 255 255 
-0.0374779 -0.0294403 0.378292 -0.504805 -0.803387 -0.315817 255 255 255 255 
-0.117552 0.00787333 -0.259416 0.0331241 -0.999431 0.00633024 255 255 255 255 
0.002981 -0.057822 -0.386662 0.209648 -0.808205 0.55032 255 255 255 255 
0.0187161 -0.0626325 0.0815383 -0.0400033 -0.998878 -0.0253431 255 255 255 255 
-0.153424 0.0619027 -0.320845 -0.903042 0.429157 0.0184064 255 255 255 255 
-0.054169 -0.0583567 -0.0194208 -0.416892 -0.907454 0.0522267 255 255 255 255 
-0.13975 0.0836716 -0.320911 -0.75913 0.649501 -0.043247 255 255 255 255 
-0.131281 0.0999715 -0.176543 -0.323535 0.946186 -0.00756291 255 255 255 255 
-0.160025 0.0542698 -0.191425 -0.994674 -0.101067 -0.0202141 255 255 255 255 
0.104895 0.0507418 0.222675 0.379944 0.91312 0.147832 255 255 255 255 
-0.0657324 -0.0535302 -0.0371617 -0.56366 -0.825973 -0.0074861 255 255 255 255 
0.0104611 -0.0321627 0.344581 0.471436 -0.87238 0.129235 255 255 255 255 
-0.121364 0.00612676 -0.279285 0.0373192 -0.996254 0.0780075 255 255 255 255 
-0.110364 0.101329 -0.263219 -0.109019 0.993114 -0.0428814 255 255 255 255 
0.0850956 0.05559 0.199802 0.278965 0.956921 0.0805003 255 255 255 255 
-0.142164 -0.0332807 -0.459555 -0.263687 -0.276118 -0.924244 255 255 255 255 
-0.0104763 -0.027991 0.341322 -0.479068 -0.850597 -0.216747 255 255 255 255 
0.0319214 -0.0482076 0.282368 0.0907103 -0.901217 0.423767 255 255 255 255 
-0.0756846 0.0445773 -0.458246 -0.00491078 0.214713 -0.976665 255 255 255 255 
-0.11681 0.0565672 0.247493 -0.779614 0.602755 0.169963 255 255 255 255 
-0.0430758 0.0905083 -0.417821 0.151249 0.927305 -0.342389 255 255 255 255 
-0.0849893 -0.0431717 -0.379687 -0.0617079 -0.839773 0.539419 255 255 255 255 
-0.146607 0.00568119 -0.131726 -0.490932 -0.866915 0.0862762 255 255 255 255 
-0.0938921 -0.0143004 0.207723 -0.663062 -0.71943 -0.206808 255 255 255 255 
0.087645 0.0486996 -0.390033 0.645092 0.644315 0.410749 255 255 255 255 
-0.0491368 -0.04496 0.0983719 -0.582133 -0.810832 0.060595 255 255 255 255 
-0.0156506 0.034616 0.447942 0.397815 -0.474692 -0.785118 255 255 255 255 
0.0969746 -0.0154785 -0.446212 0.155302 -0.0606354 -0.986004 255 255 255 255 
-0.116473 0.0961763 -0.358704 -0.213894 0.971168 -0.10527 255 255 255 255 
-0.166478 -0.0210677 -0.45338 -0.404709 -0.0861199 -0.910381 255 255 255 255 
0.087865 -0.0693669 -0.183107 0.916395 -0.246923 -0.315038 255 255 255 255 
0.0334539 0.0651336 0.0319119 0.181304 0.982933 0.0311661 255 255 255 255 
-0.159703 0.0611986 -0.196964 -0.99649 -0.0786112 -0.028768 255 255 255 255 
0.0633982 -0.0312357 0.300834 0.276607 -0.815824 0.507859 255 255 255 255 
0.115824 0.0281859 -0.252225 0.589314 0.703889 -0.396547 255 255 255 255 
0.013891 0.0647671 0.131978 0.125077 0.991529 0.0350234 255 255 255 255 
-0.139476 0.0307056 -0.0719474 -0.897799 -0.130816 0.420528 255 255 255 255 
-0.0445756 -0.0512039 0.0741039 -0.433935 -0.898611 0.0647893 255 255 255 255 
0.169871 -0.00225201 -0.067972 0.970338 -0.229565 -0.0757944 255 255 255 255 
-0.0123507 0.073685 -0.324018 0.510441 0.857594 0.0630997 255 255 255 255 
0.071944 -0.0758029 -0.147374 0.297126 -0.95098 -0.0857503 255 255 255 255 
-0.0856143 -0.00859569 -0.121978 -0.308694 -0.942985 -0.124452 255 255 255 255 
-0.0663455 0.0196677 -0.459192 0.0229192 0.0534858 -0.998306 255 255 255 255 
0.0239306 -0.0626821 -0.0049673 -0.0335134 -0.993799 0.106025 255 255 255 255 
-0.0115364 0.0525596 -0.449157 0.159329 0.376751 -0.912509 255 255 255 255 
0.0980038 -0.0167908 -0.339246 0.88197 0.392738 0.26055 255 255 255 255 
0.00418488 0.0649111 0.166439 0.0938978 0.99521 0.0272266 255 255 255 255 
-0.00120533 0.0477252 0.366633 0.149993 0.972419 0.178615 255 255 255 255 
-0.159286 0.0540356 -0.412432 -0.90268 0.41125 -0.126657 255 255 255 255 
-0.0698669 -0.0233486 -0.107727 -0.394283 -0.901202 -0.179931 255 255 255 255 
0.0960107 -0.0930244 -0.43138 -0.188541 -0.968479 0.162793 255 255 255 255 
-0.0546692 -0.0479563 0.0626596 -0.436555 -0.8961 0.0801561 255 255 255 255 
0.0169479 -0.0731397 0.205785 -0.0756877 -0.995235 0.0614703 255 255 255 255 
0.14877 -0.0270272 0.0383307 0.888788 -0.458279 0.00597161 255 255 255 255 
-0.0825388 -0.0380273 -0.003127 -0.805525 -0.589402 0.0611189 255 255 255 255 
-0.00824218 -0.0669072 -0.391112 0.148102 -0.837896 0.525353 255 255 255 255 
0.0971464 -0.0596997 0.120982 0.266287 -0.958471 -0.102098 255 255 255 255 
-0.1279 0.0965811 -0.278059 -0.522086 0.8523 -0.031792 255 255 255 255 
-0.0255335 -0.0563552 0.173221 -0.408324 -0.910631 -0.0634322 255 255 255 255 
0.0461192 0.0372205 -0.221988 0.453644 0.86992 -0.193509 255 255 255 255 
0.0947908 -0.011018 -0.253391 0.75643 -0.607236 -0.243059 255 255 255 255 
0.0570213 0.0407863 0.332222 0.49497 0.761997 0.41757 255 255 255 255 
-0.166996 -0.0450129 -0.439924 -0.96802 -0.238078 -0.0790969 255 255 255 255 
0.0332447 0.0355787 0.399515 0.93598 0.255395 0.242311 255 255 255 255 
0.0390911 0.00187535 0.384241 0.982511 -0.154519 0.103902 255 255 255 255 
-0.126432 -0.00240439 -0.135884 -0.339247 -0.940697 0.000164974 255 255 255 255 
0.142992 -0.0438431 -0.0431347 0.715143 -0.69816 0.0338148 255 255 255 255 
-0.156878 0.0543417 -0.328015 -0.92624 0.375797 0.0292494 255 255 255 255 
-0.136729 6.46308e-005 -0.309634 -0.0920835 -0.960533 0.262482 255 255 255 255 
0.148353 0.0429234 -0.15562 0.694488 0.707886 -0.128776 255 255 255 255 
-0.104695 0.0690148 0.170011 -0.214696 0.971886 0.0966577 255 255 255 255 
0.0623297 -0.0175128 -0.219941 0.935234 0.346431 0.0729573 255 255 255 255 
0.0822516 0.0636669 -0.139158 0.281882 0.941256 -0.185955 255 255 255 255 
0.0972856 -0.0627276 0.148295 0.281333 -0.95836 0.0489692 255 255 255 255 
0.117692 -0.0483117 -0.115181 0.639187 0.0595375 -0.766743 255 255 255 255 
0.0445178 -0.0505231 0.279264 0.14886 -0.893344 0.424002 255 255 255 255 
-0.00285872 0.0247119 0.45567 0.418971 0.546057 0.725455 255 255 255 255 
0.107364 -0.0135523 0.296476 0.563832 -0.553002 0.613419 255 255 255 255 
-0.00530507 0.065878 0.28905 0.0349656 0.970567 0.238279 255 255 255 255 
0.0298186 0.0251912 0.430697 0.922449 0.240994 0.301677 255 255 255 255 
0.0818583 -0.0796383 -0.397618 -0.184683 -0.921404 0.341916 255 255 255 255 
-0.158901 0.0669913 -0.220277 -0.996483 -0.0753898 -0.0365717 255 255 255 255 
0.119763 0.0497888 0.131071 0.41831 0.906654 -0.0547282 255 255 255 255 
-0.0665962 0.0798793 0.0166021 -0.258761 0.963506 -0.0685461 255 255 255 255 
-0.121329 0.0289081 0.280099 -0.887915 -0.0812686 0.452772 255 255 255 255 
-0.0759172 -0.0060282 0.305413 -0.597237 -0.613602 0.516527 255 255 255 255 
-0.0275835 -0.0373054 -0.45458 0.0523045 -0.325113 -0.944228 255 255 255 255 
-0.134274 0.0493827 -0.457019 -0.339007 0.334336 -0.879371 255 255 255 255 
0.0162965 -0.0267095 -0.133883 -0.122623 -0.640041 -0.758492 255 255 255 255 
0.000621506 0.0789429 -0.12163 0.208913 0.977911 -0.00676651 255 255 255 255 
0.0830015 -0.0775823 -0.120118 0.172422 -0.975723 -0.135036 255 255 255 255 
-0.0736295 -0.0358663 0.239493 -0.560938 -0.826536 0.0467667 255 255 255 255 
-0.00909936 0.0693426 0.128567 0.06563 0.996253 0.0563284 255 255 255 255 
0.153768 -0.0267244 0.157864 0.731916 -0.588807 0.342936 255 255 255 255 
0.0618709 -0.0663404 0.177023 0.159222 -0.985126 0.0646095 255 255 255 255 
0.000800823 0.073356 0.0343335 0.0858348 0.996297 0.00496233 255 255 255 255 
0.00648016 0.0726315 -0.0474176 0.152893 0.986751 0.054284 255 255 255 255 
0.0414927 0.066412 -0.427811 0.167416 0.81994 -0.547422 255 255 255 255 
-0.000841125 0.0715755 -0.218102 0.493411 0.859025 -0.13646 255 255 255 255 
-0.0614234 -0.0823828 -0.413621 -0.0558796 -0.91976 0.388483 255 255 255 255 
-0.0811381 0.0746838 -0.0177347 -0.14309 0.985142 0.0949721 255 255 255 255 
0.118405 -0.0407931 0.0845967 0.393019 -0.897316 -0.200897 255 255 255 255 
0.00787222 0.0435237 -0.348884 0.971843 -0.23544 0.00946271 255 255 255 255 
-0.0235477 0.0826562 -0.202108 0.320891 0.941826 -0.0999666 255 255 255 255 
-0.0641482 -0.019498 0.143022 -0.750194 -0.653679 -0.0995588 255 255 255 255 
0.163142 0.022092 0.15544 0.994037 0.0123431 0.108339 255 255 255 255 
0.0326983 -0.0110036 0.354239 0.91759 -0.382094 0.10969 255 255 255 255 
-0.0430501 -0.0538497 0.217386 -0.470287 -0.882472 -0.00859171 255 255 255 255 
-0.0888525 -0.00688994 -0.3439 0.102838 -0.86836 0.485156 255 255 255 255 
-0.149838 0.087093 -0.136951 -0.726743 0.658 0.197182 255 255 255 255 
0.0607352 0.0652135 -0.140098 0.280055 0.946073 -0.162837 255 255 255 255 
0.163118 0.0119394 0.0407602 0.997264 -0.0403261 0.0619585 255 255 255 255 
-0.0190907 0.0689714 0.155663 0.0216273 0.998662 0.0469691 255 255 255 255 
0.0659019 0.0578657 0.236834 0.226489 0.970116 0.0870453 255 255 255 255 
-0.0691512 0.00687559 -0.330031 0.175976 -0.917256 0.357315 255 255 255 255 
0.122885 -0.0113757 -0.198767 0.707016 -0.544388 -0.451409 255 255 255 255 
0.0826196 0.0556733 0.0700148 0.340686 0.94011 0.0112365 255 255 255 255 
-0.0847009 -0.0337902 0.0118044 -0.905206 -0.417654 0.0785319 255 255 255 255 
-0.133251 0.0261779 0.253907 -0.946711 -0.116509 0.300272 255 255 255 255 
0.0388232 0.00874093 0.409522 0.957641 0.156107 0.241979 255 255 255 255 
-0.151536 0.0416565 -0.45226 -0.494136 0.359921 -0.791383 255 255 255 255 
-0.0635533 0.0430254 0.328939 -0.75279 0.161556 0.638127 255 255 255 255 
-0.0979032 -0.00523341 -0.118546 -0.327363 -0.942742 -0.0638019 255 255 255 255 
0.0276854 -0.0643606 0.101925 -0.0111098 -0.998842 -0.0468088 255 255 255 255 
0.14168 0.0103894 0.253245 0.91859 -0.127192 0.374186 255 255 255 255 
0.108346 0.0528479 0.17725 0.361424 0.92714 0.0989174 255 255 255 255 
-0.172747 -0.00966038 -0.435957 -0.98988 -0.10385 -0.0967084 255 255 255 255 
-0.0929398 0.00218812 -0.164574 -0.0847464 -0.977537 -0.192975 255 255 255 255 
0.137004 0.0412445 0.0296507 0.593002 0.795893 0.12208 255 255 255 255 
0.0905656 0.0618231 -0.0430548 0.278275 0.959614 0.0412823 255 255 255 255 
-0.103785 -0.0023004 -0.103479 -0.666092 -0.737874 0.108917 255 255 255 255 
-0.100832 0.101613 -0.117271 -0.0940663 0.978249 0.184878 255 255 255 255 
-0.0625494 -0.0301345 -0.369485 0.0627745 -0.772955 0.631347 255 255 255 255 
-0.0143081 -0.0397819 0.369852 -0.478365 -0.820229 -0.313673 255 255 255 255 
0.0167621 -0.0391364 0.364861 0.734436 -0.677903 0.0324407 255 255 255 255 
0.0853664 0.0548165 0.0978347 0.308602 0.95109 -0.0139048 255 255 255 255 
-0.0925854 0.0359737 0.0404208 -0.999436 0.0250495 0.0223623 255 255 255 255 
-0.0580214 -0.0135075 -0.135701 -0.247771 -0.927006 -0.281547 255 255 255 255 
0.153805 -0.00977561 -0.160084 0.626429 -0.70827 -0.325484 255 255 255 255 
-0.0892605 -0.00204524 0.301751 -0.672824 -0.511216 0.534759 255 255 255 255 
0.0284368 -0.0700481 -0.133349 -0.0689483 -0.958514 -0.276579 255 255 255 255 
-0.0388068 0.0894585 -0.116388 0.132767 0.986006 0.100821 255 255 255 255 
0.163474 -0.000547371 0.0205972 0.976399 -0.212413 0.0390668 255 255 255 255 
0.00818893 0.0340276 -0.451464 0.172964 0.290573 -0.94109 255 255 255 255 
0.113379 -0.0280823 0.269713 0.60686 -0.66555 0.434471 255 255 255 255 
0.0967196 -0.0320996 -0.321164 0.912549 0.347996 0.214833 255 255 255 255 
-0.0412143 -0.0625845 -0.0317613 -0.334107 -0.942132 0.0275509 255 255 255 255 
0.129844 0.0223917 0.285063 0.735721 0.454898 0.50178 255 255 255 255 
-0.162509 0.0265047 -0.339975 -0.987417 0.138005 0.0772206 255 255 255 255 
0.120182 -0.0179001 -0.183906 0.78918 -0.451192 -0.416678 255 255 255 255 
-0.117676 0.0525411 0.260997 -0.785158 0.560678 0.262996 255 255 255 255 
0.0933737 -0.0741564 -0.136374 0.714195 -0.697814 -0.0545901 255 255 255 255 
0.0456903 -0.00166977 -0.422882 0.783811 -0.0643752 0.617654 255 255 255 255 
-0.0203025 -0.0584562 0.124528 -0.373822 -0.927235 -0.0222018 255 255 255 255 
0.0142715 -0.0673545 -0.0298199 -0.0898061 -0.99188 0.09005 255 255 255 255 
-0.113932 0.0681275 0.152308 -0.949483 -0.0953502 -0.298982 255 255 255 255 
0.116507 -0.013709 0.289686 0.649208 -0.488157 0.583294 255 255 255 255 
-0.126214 0.100179 -0.186104 -0.27789 0.960462 -0.0170201 255 255 255 255 
-0.146541 0.074528 -0.319713 -0.842903 0.537931 -0.0120265 255 255 255 255 
0.120834 0.0381801 0.272557 0.553109 0.759404 0.3426 255 255 255 255 
0.0573078 -0.0172582 -0.137402 -0.0844901 -0.475803 -0.875484 255 255 255 255 
-0.0528093 0.0712042 0.268773 -0.141005 0.957376 0.252089 255 255 255 255 
-0.0407813 0.0873717 -0.0931981 0.0895266 0.980585 0.174465 255 255 255 255 
-0.128257 0.0183034 -0.0735206 -0.910452 -0.199898 0.362103 255 255 255 255 
-0.0110723 -0.0611915 0.0914994 -0.235341 -0.971892 -0.00636397 255 255 255 255 
-0.00440219 -0.0417775 0.286186 -0.0931305 -0.914456 0.393823 255 255 255 255 
0.0178554 -0.07742 -0.415105 0.0846178 -0.903682 0.41976 255 255 255 255 
-0.0655741 -0.0309541 0.200321 -0.614662 -0.773557 -0.154274 255 255 255 255 
-0.0527569 0.0736893 0.218014 -0.0913035 0.994728 0.0466893 255 255 255 255 
-0.0988625 0.100645 -0.187855 -0.0144932 0.999844 -0.0100882 255 255 255 255 
-0.0986546 -0.0614718 -0.447896 -0.054315 -0.553089 -0.83135 255 255 255 255 
-0.0550388 0.0669294 -0.451362 0.0556297 0.370727 -0.927074 255 255 255 255 
0.00100419 0.0686844 0.111531 0.103463 0.99347 0.0480928 255 255 255 255 
-0.0731892 0.00790073 0.129372 -0.904488 -0.382437 -0.188795 255 255 255 255 
-0.111119 0.00668527 -0.27893 0.0541687 -0.995135 0.0822955 255 255 255 255 
0.104799 -0.0447687 0.0266117 0.38744 -0.917857 0.0861926 255 255 255 255 
0.0997879 0.0630167 -0.0643586 0.324111 0.946017 0.00185017 255 255 255 255 
-0.04623 -0.0768827 -0.39998 0.000968768 -0.885138 0.465327 255 255 255 255 
-0.00100292 -0.0292481 0.329083 -0.470284 -0.862528 -0.186757 255 255 255 255 
0.10377 -0.0297879 -0.370621 -0.801099 -0.404471 0.441184 255 255 255 255 
0.0673242 0.0660414 -0.0683773 0.230541 0.973037 -0.00700239 255 255 255 255 
-0.00551776 -0.0704853 -0.0795242 -0.228222 -0.965894 -0.122321 255 255 255 255 
-0.0514203 0.0923977 -0.159551 0.162548 0.986465 -0.0215459 255 255 255 255 
-0.019897 0.0829882 -0.376977 0.270485 0.959858 0.0742277 255 255 255 255 
0.0412856 0.0738602 -0.408553 0.156993 0.894875 -0.417795 255 255 255 255 
0.103614 -0.00159861 -0.360197 0.870187 0.348421 0.348394 255 255 255 255 
0.15316 0.0343221 0.127118 0.552704 0.830189 -0.0728366 255 255 255 255 
0.011651 -0.0692684 0.24381 -0.077456 -0.961252 0.264567 255 255 255 255 
0.107185 0.0498936 0.0789173 0.449701 0.893142 -0.00818289 255 255 255 255 
-0.0244406 0.0704317 0.241136 0.015982 0.995721 0.0910135 255 255 255 255 
-0.0977288 -0.00483581 -0.128613 -0.283879 -0.95476 -0.0885797 255 255 255 255 
-0.0452861 0.00745993 0.359618 -0.903406 -0.0528221 0.42552 255 255 255 255 
-0.0601167 0.0917848 -0.226253 0.220831 0.974076 -0.0490851 255 255 255 255 
-0.160307 0.0318136 -0.271393 -0.938969 -0.324951 0.112889 255 255 255 255 
-0.087026 -0.0211538 -0.0586889 -0.849977 -0.526607 0.014979 255 255 255 255 
0.158311 -0.0194373 0.00845444 0.910138 -0.412043 0.0432286 255 255 255 255 
-0.0355762 0.0698641 0.275762 -0.076306 0.966566 0.244803 255 255 255 255 
0.0230199 0.0678358 -0.0169969 0.15348 0.987221 0.0428714 255 255 255 255 
-0.0847826 0.0933643 -0.0829114 -0.111747 0.942354 0.315406 255 255 255 255 
-0.0351343 -0.0596385 0.00609826 -0.257639 -0.963092 0.0779494 255 255 255 255 
0.0563699 -0.0608173 0.00623019 0.0975127 -0.987367 0.124887 255 255 255 255 
0.0401087 0.0680183 -0.153761 0.312289 0.936714 -0.158248 255 255 255 255 
-0.0220734 -0.015771 0.321401 -0.475476 -0.879309 -0.0271866 255 255 255 255 
0.0126331 0.0500443 -0.323158 0.952715 -0.290821 -0.0880728 255 255 255 255 
-0.0366887 0.0705851 0.185701 -0.0430708 0.998991 0.0127184 255 255 255 255 
0.0932856 0.0549587 0.161379 0.275151 0.960425 0.0433076 255 255 255 255 
0.107475 -0.0555381 -0.110525 0.0697783 -0.356888 -0.931537 255 255 255 255 
-0.0323398 0.0874502 -0.379434 0.248726 0.968332 0.021625 255 255 255 255 
-0.0596612 -0.0334856 0.100542 -0.758025 -0.646677 0.0848949 255 255 255 255 
-0.0140279 0.0116419 -0.25763 0.348467 -0.934387 0.0741073 255 255 255 255 
0.0574188 0.0589809 0.117981 0.196138 0.980493 0.0127484 255 255 255 255 
0.145204 -0.0472171 0.150174 0.552696 -0.807348 0.20668 255 255 255 255 
0.0307106 -0.0604937 0.265144 0.057201 -0.926024 0.373104 255 255 255 255 
-0.163984 -0.0381817 -0.398197 -0.380449 -0.853975 0.354944 255 255 255 255 
-0.0528147 -0.0366632 0.177512 -0.610044 -0.781059 -0.133391 255 255 255 255 
0.102481 -0.0622596 0.13443 0.289763 -0.956575 -0.0316346 255 255 255 255 
0.0933081 -0.0415936 -0.194748 0.823183 -0.416357 -0.386027 255 255 255 255 
0.142538 -0.0339487 0.0315544 0.826605 -0.562385 0.0211535 255 255 255 255 
-0.0257186 0.0693005 0.177243 -0.00256141 0.999759 0.0218046 255 255 255 255 
-0.00209786 0.0667248 -0.267702 0.638329 0.763424 -0.0985918 255 255 255 255 
-0.0992822 0.00969865 -0.243352 0.0569097 -0.997905 -0.0307584 255 255 255 255 
0.0435532 -0.0660358 -0.442672 0.0582288 -0.324996 -0.943921 255 255 255 255 
0.0599651 0.0520473 -0.189699 0.294523 0.916177 -0.2718 255 255 255 255 
-0.171988 -0.0299057 -0.4053 -0.985067 -0.17199 -0.00786367 255 255 255 255 
-0.127536 0.0168097 -0.464385 -0.245415 0.0805622 -0.966065 255 255 255 255 
0.102926 -0.0628705 -0.136963 0.788895 -0.602781 -0.119582 255 255 255 255 
0.131785 -0.04454 -0.00269901 0.60836 -0.786978 0.102781 255 255 255 255 
-0.163187 0.016493 -0.308911 -0.860836 -0.444494 0.247761 255 255 255 255 
-0.0925517 0.029578 0.0213661 -0.998661 0.048628 0.0176534 255 255 255 255 
-0.0909891 0.00956236 0.0423112 -0.987803 -0.133059 0.0808691 255 255 255 255 
-0.134935 0.0268224 -0.462496 -0.333044 0.193094 -0.922928 255 255 255 255 
-0.0437057 -0.0468123 0.189972 -0.524697 -0.845831 -0.0962469 255 255 255 255 
-0.0890509 0.0991304 -0.291355 0.103817 0.991374 -0.0799983 255 255 255 255 
-0.0373437 0.00487612 -0.176631 -0.073468 -0.95861 -0.275082 255 255 255 255 
-0.0327696 0.0787375 -0.0472002 0.0603452 0.990234 0.125676 255 255 255 255 
-0.0356038 0.0712051 0.14645 -0.0333753 0.996487 0.0768062 255 255 255 255 
0.132602 0.054248 -0.160158 0.593542 0.790223 -0.152497 255 255 255 255 
-0.0817773 0.0951646 -0.350927 0.0736092 0.994602 -0.0731292 255 255 255 255 
-0.134429 0.0878673 -0.39415 -0.62528 0.76062 -0.174591 255 255 255 255 
-0.0915994 -0.0094541 -0.0393713 -0.937975 -0.343207 0.0491109 255 255 255 255 
0.0951773 -0.0540583 0.00781251 0.324767 -0.936401 0.132968 255 255 255 255 
-0.0942732 0.0248354 0.309796 -0.786766 0.0237647 0.616793 255 255 255 255 
-0.0492772 -0.0592603 -0.0597194 -0.421887 -0.903861 -0.0710415 255 255 255 255 
0.0901946 0.0379452 -0.225374 0.178816 0.94195 -0.284175 255 255 255 255 
0.0298311 -0.0612934 0.00497753 -0.00664818 -0.994761 0.102013 255 255 255 255 
-0.0520815 -0.0351855 0.13414 -0.67472 -0.737465 -0.0299766 255 255 255 255 
-0.170134 0.0127303 -0.438123 -0.992386 0.0591716 -0.108024 255 255 255 255 
0.103002 -0.0471428 0.0914887 0.317634 -0.931616 -0.176634 255 255 255 255 
0.112047 -0.0608491 -0.378846 -0.847732 -0.325178 0.419059 255 255 255 255 
0.120812 0.0350891 -0.239191 0.556032 0.72118 -0.413192 255 255 255 255 
-0.158016 0.0329114 -0.210785 -0.982911 -0.182668 -0.0227501 255 255 255 255 
0.0835948 0.0558814 0.150175 0.239377 0.970695 0.0212288 255 255 255 255 
0.0751058 0.0145874 -0.145646 0.95127 0.126891 -0.281042 255 255 255 255 
-0.0366277 -0.0638077 -0.052621 -0.328315 -0.944006 -0.0325883 255 255 255 255 
0.0488274 0.0601466 0.261502 0.189447 0.975228 0.114194 255 255 255 255 
0.107534 0.0526501 0.03928 0.461471 0.883287 0.0827542 255 255 255 255 
0.0431368 0.0609989 0.256986 0.172906 0.979765 0.100813 255 255 255 255 
-0.0424755 -0.0726922 -0.439887 -0.0543777 -0.701202 -0.710886 255 255 255 255 
0.0517002 0.0594493 0.13139 0.177868 0.983889 0.0180424 255 255 255 255 
0.0753087 0.0205223 -0.448689 0.127828 0.145309 -0.981094 255 255 255 255 
-0.0303888 -0.0538691 0.262949 -0.289221 -0.9102 0.296458 255 255 255 255 
0.155577 -0.076997 -0.425513 0.947199 -0.312794 0.0705265 255 255 255 255 
0.00901126 -0.0723331 -0.0991431 -0.210862 -0.949706 -0.231505 255 255 255 255 
-0.0836315 -0.0196137 -0.0856422 -0.567736 -0.820298 -0.0691913 255 255 255 255 
-0.0997105 -0.0608674 -0.393595 -0.186047 -0.905617 0.381108 255 255 255 255 
-0.0881313 -0.010396 -0.461235 -0.026187 -0.181704 -0.983005 255 255 255 255 
-0.000662058 0.0808959 -0.412812 0.18158 0.92553 -0.332298 255 255 255 255 
0.0389965 -0.0706933 0.189475 0.0480946 -0.997725 0.0472473 255 255 255 255 
-0.0580977 0.0805011 -0.307235 0.785528 0.15311 0.599586 255 255 255 255 
0.0236855 0.0337944 -0.448408 0.165862 0.292911 -0.941644 255 255 255 255 
-0.117845 0.0960984 -0.382229 -0.196137 0.969359 -0.147895 255 255 255 255 
0.117831 -0.0593146 -0.353574 0.922203 0.165389 0.349553 255 255 255 255 
-0.030164 0.0843209 -0.21498 0.319327 0.943767 -0.0856441 255 255 255 255 
0.0478197 -0.0710871 -0.0321216 0.0205956 -0.991953 0.124922 255 255 255 255 
0.0523747 0.0604653 0.0918765 0.212629 0.977024 0.0145701 255 255 255 255 
0.0898596 0.0641424 -0.125627 0.309189 0.939046 -0.150315 255 255 255 255 
0.101878 0.0439258 -0.217845 0.114306 0.93196 -0.344071 255 255 255 255 
0.147902 -0.0257506 0.0458908 0.897263 -0.441213 -0.015825 255 255 255 255 
-0.0295607 0.0490418 0.362668 0.0292787 0.969856 0.241912 255 255 255 255 
-0.155981 0.00983197 -0.135813 -0.967603 -0.233124 0.0969442 255 255 255 255 
-0.0904456 0.0105508 -0.231122 0.0661223 -0.995229 -0.0717487 255 255 255 255 
0.082556 0.055026 0.240568 0.284594 0.951072 0.120281 255 255 255 255 
0.0295225 0.0690846 -0.0559885 0.180991 0.982918 0.0333765 255 255 255 255 
-0.032918 0.0140439 0.447327 -0.950242 0.169661 0.261259 255 255 255 255 
0.125034 -0.0227519 0.227665 0.623932 -0.711509 0.323207 255 255 255 255 
0.116779 -0.0386798 0.183405 0.555904 -0.744742 0.369228 255 255 255 255 
0.00578549 0.0484332 0.355524 0.142548 0.965072 0.21981 255 255 255 255 
-0.0935461 0.0774765 0.112856 -0.225402 0.971225 0.0769207 255 255 255 255 
-0.0465255 0.0335884 -0.456884 0.0635672 0.165011 -0.984241 255 255 255 255 
0.125901 0.0445562 0.0527266 0.573261 0.815634 0.0781864 255 255 255 255 
-0.0251643 0.0697862 0.194583 0.000529203 0.999942 0.0107454 255 255 255 255 
0.0835491 -0.0641183 0.14947 0.220749 -0.974827 0.031335 255 255 255 255 
-0.0228746 -0.0439456 -0.373 0.134521 -0.738935 0.660212 255 255 255 255 
0.126944 0.0568171 -0.143431 0.515441 0.846079 -0.135909 255 255 255 255 
0.0715827 -0.0821453 -0.0638128 0.152341 -0.987187 0.0474698 255 255 255 255 
-0.113422 0.0712258 0.138281 -0.239455 0.965872 0.0987596 255 255 255 255 
0.0908317 -0.0589534 -0.00325353 0.28634 -0.946976 0.145759 255 255 255 255 
0.166836 -0.00585731 -0.0198318 0.974706 -0.221478 0.029919 255 255 255 255 
0.145705 0.0322409 0.0595461 0.67582 0.73349 0.0725245 255 255 255 255 
-0.0214378 -0.0296013 0.297109 -0.254465 -0.89693 0.361614 255 255 255 255 
0.146501 0.0446914 -0.139846 0.657035 0.746142 -0.107597 255 255 255 255 
0.0763954 0.0157534 -0.256896 0.981575 0.173616 0.0797954 255 255 255 255 
-0.0793003 -0.0315642 0.236267 -0.590508 -0.807027 0.00264843 255 255 255 255 
-0.0938117 0.0255261 -0.462264 -0.0621698 0.0940577 -0.993624 255 255 255 255 
0.0748887 -0.0842083 -0.0902207 0.106329 -0.990793 -0.0838098 255 255 255 255 
-0.173423 -0.0154136 -0.42634 -0.989149 -0.129147 -0.0700383 255 255 255 255 
-0.0657554 0.0797855 -0.0408671 -0.068872 0.980444 0.184352 255 255 255 255 
-0.00566934 -0.0451001 -0.128955 -0.225522 -0.830968 -0.508559 255 255 255 255 
-0.0809295 0.0540695 0.302704 -0.391125 0.809921 0.437092 255 255 255 255 
-0.0581125 0.0726985 0.255841 -0.130719 0.971468 0.197895 255 255 255 255 
0.0828991 0.0354044 0.32158 0.57003 0.625106 0.533206 255 255 255 255 
0.161986 -0.0187243 -0.0135538 0.936596 -0.348088 0.0402781 255 255 255 255 
0.0236589 0.0422028 0.373223 0.218483 0.962862 0.158623 255 255 255 255 
0.0597133 -0.0798404 -0.0545578 0.0769819 -0.994282 0.0740017 255 255 255 255 
0.084051 -0.0362647 -0.234728 0.785591 -0.543943 -0.294911 255 255 255 255 
0.15792 0.036359 -0.0585695 0.761981 0.647597 -0.0015754 255 255 255 255 
-0.0366419 -0.0468873 -0.109917 -0.328314 -0.895576 -0.300255 255 255 255 255 
0.157037 -0.0416112 0.135601 0.987772 -0.136352 0.075595 255 255 255 255 
0.0598534 0.0318285 -0.171621 0.945811 0.239432 -0.219348 255 255 255 255 
0.0481638 0.0672638 -0.144317 0.291389 0.944663 -0.15068 255 255 255 255 
0.0317812 -0.0171568 0.331071 0.306883 -0.882313 0.356857 255 255 255 255 
-0.0703695 0.0955018 -0.420571 0.0296187 0.916409 -0.399146 255 255 255 255 
0.0267214 0.0518619 -0.406531 0.899698 0.057719 0.43268 255 255 255 255 
-0.0783494 0.0812678 -0.449221 -0.0184937 0.471274 -0.881793 255 255 255 255 
0.0224479 -0.00188416 -0.395602 0.788747 -0.0375954 0.613567 255 255 255 255 
0.069307 -0.0532473 0.0811884 0.206708 -0.974648 -0.0856335 255 255 255 255 
0.0852104 -0.0796545 -0.0618666 0.255229 -0.965154 0.0577522 255 255 255 255 
0.0850213 -0.00640157 -0.157764 0.952623 0.0324124 -0.302422 255 255 255 255 
-0.158703 0.0541396 -0.0904137 -0.907867 -0.128749 0.399001 255 255 255 255 
0.0694287 0.0538558 0.291626 0.284518 0.929981 0.232775 255 255 255 255 
0.0895604 0.0593291 -0.00690302 0.289806 0.954571 0.069338 255 255 255 255 
0.0069774 -0.0625706 0.0810545 -0.105172 -0.994331 -0.0156653 255 255 255 255 
0.000650447 -0.0292944 -0.372153 0.765373 -0.079129 0.638704 255 255 255 255 
0.0552853 0.0203564 0.324235 0.83052 -0.304599 0.466322 255 255 255 255 
0.0334889 0.0294549 -0.310583 0.595021 0.803164 -0.0296238 255 255 255 255 
0.0219684 -0.0719653 0.189694 -0.0555267 -0.998243 0.0206871 255 255 255 255 
-0.143038 0.00653376 -0.222623 -0.0879769 -0.985908 -0.142287 255 255 255 255 
-0.0250393 -0.00758894 -0.159494 -0.17775 -0.898594 -0.401166 255 255 255 255 
0.0793419 -0.0550657 0.0183588 0.242255 -0.96316 0.116771 255 255 255 255 
-0.16467 0.0388185 -0.395509 -0.977687 0.208784 -0.0231846 255 255 255 255 
0.0313733 0.0719196 -0.13344 0.263487 0.960258 -0.0920854 255 255 255 255 
0.0209839 0.0387069 -0.288328 0.655271 0.751562 -0.0759917 255 255 255 255 
-0.0330043 0.0483066 0.37467 0.0590285 0.97724 0.20376 255 255 255 255 
-0.125363 -0.072129 -0.438111 -0.326422 -0.923884 0.199715 255 255 255 255 
-0.0486324 0.0893403 -0.245494 0.295031 0.95356 -0.0606708 255 255 255 255 
0.100474 -0.00916304 -0.350802 0.874741 0.376241 0.305404 255 255 255 255 
-0.171234 0.0011185 -0.394744 -0.999927 -0.000290872 0.0120905 255 255 255 255 
-0.0868535 -0.0107173 0.294624 -0.636368 -0.598933 0.486122 255 255 255 255 
-0.0278251 0.0779904 0.0167909 -0.0266698 0.999009 -0.0356266 255 255 255 255 
-0.0818134 0.0323769 0.0922491 -0.979632 -0.199174 -0.0255191 255 255 255 255 
0.0456403 0.0591056 -0.176526 0.374718 0.901759 -0.215448 255 255 255 255 
0.123835 0.0511755 0.00116314 0.477144 0.872815 0.102601 255 255 255 255 
-0.105285 0.0458846 0.161761 -0.0746391 0.659433 0.748049 255 255 255 255 
-0.164692 0.0284032 -0.370214 -0.990513 0.129766 0.0452263 255 255 255 255 
-0.0110295 0.0834643 -0.406596 0.192321 0.952111 -0.23769 255 255 255 255 
-0.0101817 -0.0616025 0.00435412 -0.141549 -0.986847 0.0780855 255 255 255 255 
0.150418 -0.0390364 -0.0862099 0.838672 -0.527201 -0.136704 255 255 255 255 
-0.113778 0.0335144 -0.462434 -0.166324 0.162522 -0.972586 255 255 255 255 
-0.127275 0.093869 -0.387642 -0.584443 0.795931 -0.157859 255 255 255 255 
0.105215 -0.0388213 0.236433 0.540177 -0.783521 0.307089 255 255 255 255 
-0.0396004 0.0103182 -0.287277 0.202903 -0.970821 0.127812 255 255 255 255 
0.160652 -0.0068029 0.122198 0.998734 -0.0300738 0.0403296 255 255 255 255 
-0.0831334 0.10072 -0.154473 0.0370913 0.998681 0.0355104 255 255 255 255 
0.141113 -0.0307597 0.168456 0.663903 -0.645231 0.378034 255 255 255 255 
-0.0814741 0.0119832 -0.238401 0.101701 -0.994382 -0.0293595 255 255 255 255 
-0.00618638 -0.0489163 -0.378434 0.193542 -0.756163 0.625108 255 255 255 255 
0.158018 -0.0228484 -0.107054 0.873522 -0.458964 -0.162208 255 255 255 255 
0.0290831 0.06661 -0.415113 0.908072 0.0752236 0.412003 255 255 255 255 
-0.132578 0.0368121 0.220838 -0.809866 0.576288 0.109589 255 255 255 255 
-0.066243 0.0920132 -0.42861 0.0438093 0.898203 -0.437392 255 255 255 255 
0.0110424 0.0221478 0.44994 0.429056 0.543974 0.721113 255 255 255 255 
-0.1309 0.0914079 -0.377527 -0.628211 0.768092 -0.124042 255 255 255 255 
-0.025082 -0.0129702 -0.457089 0.0852621 -0.122126 -0.988846 255 255 255 255 
0.0791241 -0.0548479 0.0988921 0.224229 -0.967082 -0.120308 255 255 255 255 
0.0205249 0.0633217 0.225452 0.122272 0.991587 0.042488 255 255 255 255 
-0.161715 0.0473508 -0.37856 -0.967861 0.251401 0.00648997 255 255 255 255 
0.14559 0.0421979 0.141186 0.531404 0.846785 -0.0237579 255 255 255 255 
-0.0786573 -0.0351922 0.0456989 -0.903215 -0.40708 0.13597 255 255 255 255 
-0.166907 -0.00649941 -0.363388 -0.997476 0.0225724 0.0673138 255 255 255 255 
0.112443 -0.0476926 0.0970941 0.339766 -0.91966 -0.19694 255 255 255 255 
0.111004 -0.0348672 0.215422 0.542444 -0.784658 0.30011 255 255 255 255 
0.106467 -0.0438507 0.186817 0.52743 -0.773737 0.350925 255 255 255 255 
-0.084385 -0.0342185 -0.0129634 -0.853084 -0.520083 0.0419612 255 255 255 255 
0.105712 -0.0422705 0.198034 0.488022 -0.823394 0.289581 255 255 255 255 
-0.126121 0.0329177 0.269537 -0.864363 0.3684 0.342284 255 255 255 255 
-0.143966 0.00775626 -0.234001 -0.0518229 -0.992995 -0.106183 255 255 255 255 
0.0194958 0.0682932 0.0447905 0.150142 0.988391 0.023269 255 255 255 255 
0.0263543 0.06784 -0.0297986 0.161906 0.985785 0.0448875 255 255 255 255 
0.106292 0.0622218 -0.424857 0.613814 0.673884 0.411234 255 255 255 255 
0.0115762 0.0784678 -0.412901 0.172979 0.91724 -0.358815 255 255 255 255 
-0.0923126 0.0292095 -0.00708877 -0.996402 0.075192 0.0391145 255 255 255 255 
0.151122 0.0412325 -0.0958214 0.669761 0.740371 -0.0571891 255 255 255 255 
-0.0488832 -0.0380928 0.146771 -0.628102 -0.775631 -0.0623163 255 255 255 255 
0.0460667 0.0651764 -0.159099 0.32257 0.92895 -0.181662 255 255 255 255 
0.162107 0.00877198 0.0466227 0.99701 -0.0497134 0.059161 255 255 255 255 
0.00954892 0.0563258 -0.363273 0.981913 -0.128184 0.13934 255 255 255 255 
0.159028 -0.0158665 0.112011 0.997747 -0.0530016 0.0411222 255 255 255 255 
-0.0863992 0.079019 0.0903683 -0.236601 0.970832 0.038803 255 255 255 255 
0.0463196 0.0088128 -0.425527 0.801687 -0.0363423 0.596639 255 255 255 255 
-0.0115687 -0.0506384 0.389136 -0.48372 -0.812198 -0.326112 255 255 255 255 
-0.0261235 0.0501795 0.386431 0.142219 0.979774 0.140773 255 255 255 255 
-0.165161 0.0619221 -0.141647 -0.986311 -0.140898 0.0856614 255 255 255 255 
0.0843952 -0.0643109 0.142945 0.223651 -0.974623 0.00945716 255 255 255 255 
0.0345627 -0.0475333 -0.447559 0.0850441 -0.265735 -0.960288 255 255 255 255 
-0.141595 0.0740633 -0.428844 -0.675454 0.6783 -0.289258 255 255 255 255 
-0.031118 0.0708816 0.265481 -0.0420792 0.979396 0.197515 255 255 255 255 
-0.0323205 -0.0873744 -0.417327 0.0337164 -0.895484 0.443815 255 255 255 255 
0.0667388 0.0641595 -0.0457812 0.213229 0.976447 0.0329415 255 255 255 255 
-0.0015883 -0.0684292 -0.10016 -0.239986 -0.937312 -0.252691 255 255 255 255 
0.129158 0.0225768 -0.236769 0.31353 -0.898331 -0.307733 255 255 255 255 
0.00707953 0.0782559 -0.144449 0.253128 0.964801 -0.0713154 255 255 255 255 
0.157625 -0.0339672 -0.440665 0.346996 0.0267084 -0.937486 255 255 255 255 
-0.13939 0.00579926 -0.282307 0.0174771 -0.997038 0.0749033 255 255 255 255 
-0.0908489 -0.0125605 -0.0646054 -0.867344 -0.495906 0.0423185 255 255 255 255 
-0.0415769 -0.0461388 0.17602 -0.530741 -0.842206 -0.0948904 255 255 255 255 
0.0887971 -0.0461191 0.045176 0.307508 -0.951291 0.0220218 255 255 255 255 
0.108354 -0.0582376 -0.0183207 0.402498 -0.905712 0.132969 255 255 255 255 
-0.0365447 0.0818363 -0.437486 0.145705 0.863882 -0.48216 255 255 255 255 
-0.091969 0.0711781 0.182063 -0.216035 0.973854 0.0702736 255 255 255 255 
-0.104319 0.00877337 -0.235142 0.033189 -0.997115 -0.0682708 255 255 255 255 
-0.0239692 -0.0849905 -0.429186 -0.072824 -0.756507 -0.649918 255 255 255 255 
-0.107592 -0.020696 -0.46315 -0.105869 -0.234983 -0.966217 255 255 255 255 
0.156892 0.0348287 -0.148645 0.748927 0.65408 -0.106248 255 255 255 255 
-0.0976223 0.0982354 -0.382497 -0.0702115 0.988141 -0.136556 255 255 255 255 
-0.137558 0.0700103 -0.0656415 -0.889163 0.0485754 0.455004 255 255 255 255 
-0.0210613 0.0791057 0.0475606 -0.00167278 0.99999 -0.0040444 255 255 255 255 
-0.118375 0.00741907 0.279137 -0.871032 -0.278231 0.404834 255 255 255 255 
-0.0523761 -0.0786671 -0.403659 -0.0210272 -0.899301 0.436825 255 255 255 255 
-0.120208 0.102452 -0.17195 -0.189612 0.981846 0.00501624 255 255 255 255 
0.0563566 0.0547507 -0.436929 0.152993 0.572164 -0.805743 255 255 255 255 
-0.158898 0.0452685 -0.210151 -0.99126 -0.128955 -0.0278128 255 255 255 255 
-0.00964532 -0.0546263 0.268841 -0.155463 -0.923577 0.350481 255 255 255 255 
-0.00708032 -0.0693423 -0.0873427 -0.242045 -0.95476 -0.172767 255 255 255 255 
-0.0909884 0.10228 -0.151474 -0.00633695 0.998709 0.0503946 255 255 255 255 
-0.0965758 -0.0133117 -0.462156 -0.0566713 -0.184443 -0.981208 255 255 255 255 
