ply
format ascii 1.0
comment VCGLIB generated
element vertex 632
property float x
property float y
property float z
property float nx
property float ny
property float nz
property uchar red
property uchar green
property uchar blue
property uchar alpha
element face 0
property list uchar int vertex_indices
end_header
0.166986 -0.0689749 -0.098037 0.594165 -0.480848 -0.644789 255 255 255 255 
0.0558866 0.164467 0.107339 0.386985 0.604424 0.696358 255 255 255 255 
0.247029 -0.000138405 0.0685572 0.646816 0.0553998 0.760631 255 255 255 255 
0.0629265 0.177186 0.093804 0.441286 0.589633 0.676462 255 255 255 255 
0.0961649 -0.0829528 -0.155501 0.586822 -0.548469 -0.595669 255 255 255 255 
-0.0965318 0.0634226 -0.173652 -0.6774 0.444305 -0.586279 255 255 255 255 
-0.106244 -0.179654 0.0315111 -0.76514 -0.603397 0.224659 255 255 255 255 
0.145459 0.0760758 -0.111645 0.613735 0.466298 -0.637099 255 255 255 255 
-0.0344406 0.0941405 -0.19976 -0.257901 0.7605 -0.595924 255 255 255 255 
0.0677052 0.0341606 0.24198 0.682607 0.338281 0.647775 255 255 255 255 
-0.147527 -0.110069 -0.0740014 -0.611813 -0.643797 -0.459576 255 255 255 255 
0.134529 0.145312 -0.0218634 0.715819 0.685618 -0.132405 255 255 255 255 
0.144247 -0.134773 -0.0225876 0.680817 -0.716604 -0.151547 255 255 255 255 
-0.146041 -0.124686 0.0517044 -0.64918 -0.681287 0.33825 255 255 255 255 
-0.227939 -0.0659208 -0.0529358 -0.623158 -0.58136 -0.523159 255 255 255 255 
0.0312704 0.151292 0.128128 0.19706 0.664406 0.720925 255 255 255 255 
-0.00842243 0.251331 -0.0652025 -0.113799 0.66926 -0.734262 255 255 255 255 
0.00935975 0.0917991 -0.210814 0.0826547 0.795902 -0.599756 255 255 255 255 
0.247701 -0.0235634 -0.0641987 0.645748 -0.170005 -0.744384 255 255 255 255 
-0.265222 -0.0517191 -0.0217105 -0.681314 -0.729929 -0.0549074 255 255 255 255 
0.206243 -0.0878487 0.0392314 0.603874 -0.749536 0.271167 255 255 255 255 
0.0952516 -0.195728 0.0327861 0.772451 -0.589191 0.237009 255 255 255 255 
0.101548 0.189707 0.023399 0.785538 0.600966 0.147547 255 255 255 255 
-0.266878 -0.00155398 -0.0547677 -0.709853 -0.0894418 -0.698648 255 255 255 255 
0.278307 0.0296372 0.0306697 0.810067 0.319741 0.491484 255 255 255 255 
0.128743 0.109265 -0.0961259 0.594701 0.590229 -0.545858 255 255 255 255 
-0.0563838 0.0890599 0.18968 -0.406476 0.698584 0.588862 255 255 255 255 
0.281732 -0.024414 -0.028596 0.718278 -0.256967 -0.646564 255 255 255 255 
0.0474416 0.242127 0.0576839 0.322286 0.631613 0.705122 255 255 255 255 
0.0626641 -0.109867 0.157058 0.398579 -0.675159 0.620722 255 255 255 255 
0.163341 -0.112278 0.0498885 0.627103 -0.711534 0.316956 255 255 255 255 
0.110471 0.177234 -0.0183304 0.777544 0.616127 -0.125747 255 255 255 255 
-0.082601 0.0973939 0.154933 -0.515532 0.610525 0.601237 255 255 255 255 
-0.0299767 0.234932 0.0720263 -0.249511 0.62463 0.739987 255 255 255 255 
0.159213 0.0127878 -0.123432 0.650693 0.0940287 -0.753497 255 255 255 255 
-0.0514578 0.0724865 -0.220481 -0.460021 0.64745 -0.60761 255 255 255 255 
-0.0667044 0.222277 -0.055859 -0.646513 0.60998 -0.458199 255 255 255 255 
0.197567 0.0120929 0.097311 0.580743 0.0839208 0.80975 255 255 255 255 
-0.0923884 -0.2058 -0.0181008 -0.799985 -0.586813 -0.125199 255 255 255 255 
0.263051 -0.0484397 0.0246818 0.708416 -0.649057 0.277258 255 255 255 255 
-0.131888 -0.0852772 -0.114948 -0.610103 -0.508101 -0.607954 255 255 255 255 
0.0241429 -0.279812 0.0311943 0.310402 -0.757527 0.574285 255 255 255 255 
0.154718 -0.0110072 -0.128348 0.664452 -0.05358 -0.745408 255 255 255 255 
0.0947183 -0.171874 0.0682927 0.659057 -0.592376 0.463395 255 255 255 255 
-0.0652111 -0.224096 -0.0565966 -0.619901 -0.611075 -0.492251 255 255 255 255 
-0.222479 -0.02921 -0.0820426 -0.613961 -0.240004 -0.751964 255 255 255 255 
0.286221 0.0329946 0.000292576 0.856639 0.515875 0.0065481 255 255 255 255 
0.0307898 0.144381 -0.133237 0.210167 0.680745 -0.701724 255 255 255 255 
-0.0755047 0.041927 -0.22334 -0.700273 0.370853 -0.609988 255 255 255 255 
0.111974 0.153837 0.0636272 0.667934 0.619512 0.412395 255 255 255 255 
-0.00368495 0.0121194 0.299214 0.350703 0.411229 0.841367 255 255 255 255 
0.00638716 0.0946227 0.205109 0.0719303 0.805997 0.587532 255 255 255 255 
0.131351 0.0935106 0.108153 0.601427 0.531978 0.596058 255 255 255 255 
-0.0611836 -0.0813653 -0.196449 -0.507259 -0.632615 -0.585223 255 255 255 255 
0.183006 -0.0949393 -0.0554178 0.599803 -0.706984 -0.374714 255 255 255 255 
0.0752651 0.230332 -0.0291271 0.756407 0.611603 -0.231928 255 255 255 255 
0.165219 0.00771544 -0.119437 0.637907 0.0626362 -0.767562 255 255 255 255 
-0.159796 -0.123934 0.00491598 -0.654715 -0.755805 0.0103223 255 255 255 255 
-0.239671 0.0737146 -0.00501481 -0.635017 0.771868 -0.0311886 255 255 255 255 
-0.229992 0.0392903 -0.0714912 -0.610482 0.332604 -0.718809 255 255 255 255 
-0.0772922 0.110509 -0.144638 -0.493674 0.622703 -0.607064 255 255 255 255 
0.0998415 0.0150118 -0.194906 0.790457 0.121447 -0.600357 255 255 255 255 
0.110571 0.165515 0.0483819 0.71658 0.619555 0.320412 255 255 255 255 
0.0106535 0.0820836 0.225629 0.115563 0.791777 0.599779 255 255 255 255 
0.102593 -0.141415 0.0899914 0.596843 -0.599671 0.533079 255 255 255 255 
0.188239 0.0536277 0.091092 0.583283 0.384778 0.715351 255 255 255 255 
0.0810651 0.160161 0.0933354 0.525319 0.594541 0.608738 255 255 255 255 
0.0621296 0.0142945 -0.254444 0.736548 0.14554 -0.660541 255 255 255 255 
0.106367 -0.0298091 -0.182876 0.759357 -0.204618 -0.617664 255 255 255 255 
-0.0209443 0.24005 0.0711294 -0.172398 0.633935 0.753927 255 255 255 255 
0.226572 0.0490043 0.0672098 0.604991 0.415591 0.679169 255 255 255 255 
-0.135395 0.037099 -0.141017 -0.701048 0.241285 -0.671054 255 255 255 255 
-0.130051 0.0423935 0.143514 -0.695377 0.260789 0.669656 255 255 255 255 
-0.0491158 -0.107586 0.168116 -0.324905 -0.722903 0.609794 255 255 255 255 
0.24518 0.029193 -0.0652308 0.635896 0.249645 -0.730283 255 255 255 255 
-0.046111 -0.104934 0.173874 -0.317191 -0.731209 0.603924 255 255 255 255 
0.253884 0.0518034 0.0424393 0.687429 0.521886 0.505052 255 255 255 255 
-0.0246131 -0.229808 -0.0763534 -0.263377 -0.621682 -0.737661 255 255 255 255 
0.0693855 0.000912499 -0.246759 0.765098 0.0084182 -0.643859 255 255 255 255 
0.272557 -0.0260634 0.0406757 0.746929 -0.452424 0.487246 255 255 255 255 
0.143154 0.126321 -0.0538227 0.647763 0.677443 -0.348531 255 255 255 255 
0.127674 0.0827556 -0.123383 0.612255 0.489761 -0.620707 255 255 255 255 
0.158435 0.0430309 -0.117427 0.63405 0.270267 -0.724525 255 255 255 255 
0.0641868 -0.220823 0.0624645 0.563013 -0.617276 0.549533 255 255 255 255 
0.0754411 0.234254 -0.0190722 0.772987 0.617894 -0.143871 255 255 255 255 
0.0529377 0.0419569 0.251535 0.49422 0.553579 0.670295 255 255 255 255 
-0.191438 -0.05054 -0.0921251 -0.594741 -0.393867 -0.700823 255 255 255 255 
0.0531197 -0.195271 0.0876831 0.378009 -0.593046 0.710919 255 255 255 255 
0.0980436 0.0747579 -0.162847 0.626301 0.492301 -0.604473 255 255 255 255 
0.00140919 -0.267976 -0.0518225 -0.0465023 -0.743938 -0.666628 255 255 255 255 
-0.00667724 -0.257241 -0.0611381 -0.128069 -0.701728 -0.70084 255 255 255 255 
-0.00471083 0.239747 -0.074102 -0.0828435 0.639401 -0.764397 255 255 255 255 
0.167862 0.107337 -0.0528313 0.615892 0.709774 -0.341902 255 255 255 255 
-0.0796114 0.15217 -0.102733 -0.495197 0.601047 -0.627314 255 255 255 255 
-0.0911807 -0.0865559 0.157103 -0.594657 -0.543241 0.592682 255 255 255 255 
-0.116832 -0.163149 -0.0310706 -0.749146 -0.630931 -0.20176 255 255 255 255 
-0.00547394 0.173256 0.114626 -0.066385 0.627706 0.775615 255 255 255 255 
-0.0374992 0.134357 0.141019 -0.242472 0.694333 0.677576 255 255 255 255 
0.182986 -0.0659826 -0.0885059 0.589321 -0.476576 -0.652362 255 255 255 255 
-0.140309 -0.140215 0.0204942 -0.700269 -0.703033 0.12397 255 255 255 255 
0.136118 0.103267 0.0941557 0.600381 0.573778 0.557065 255 255 255 255 
0.17146 0.10761 0.0467277 0.618143 0.723157 0.308128 255 255 255 255 
-0.241704 -0.0714561 -0.00958576 -0.631206 -0.775197 -0.0254459 255 255 255 255 
-0.0243339 -0.0457739 0.267484 -0.37575 -0.587364 0.716809 255 255 255 255 
-0.0633891 0.0967982 0.172913 -0.428593 0.678607 0.59649 255 255 255 255 
-0.278842 0.00864208 -0.0429444 -0.750874 0.0757494 -0.656087 255 255 255 255 
-0.101822 -0.135474 -0.0979811 -0.583793 -0.599702 -0.547306 255 255 255 255 
0.114639 -0.010873 -0.173663 0.771802 -0.0525865 -0.633684 255 255 255 255 
-0.0722769 0.0921007 -0.171981 -0.523197 0.617756 -0.587062 255 255 255 255 
0.0247172 0.113591 0.170677 0.170547 0.768879 0.616229 255 255 255 255 
-0.0194621 -0.192228 -0.100906 -0.158439 -0.601315 -0.783146 255 255 255 255 
0.0666391 -0.0520291 0.226777 0.65862 -0.422859 0.622422 255 255 255 255 
-0.07731 -0.0316192 0.225702 -0.743054 -0.278584 0.608491 255 255 255 255 
-0.0717096 -0.242125 -0.0130583 -0.7664 -0.627833 -0.135855 255 255 255 255 
0.037369 -0.122192 0.154657 0.242281 -0.719371 0.651004 255 255 255 255 
0.157997 0.123681 0.0219576 0.655309 0.7442 0.12937 255 255 255 255 
-0.0401555 -0.187045 0.0996939 -0.288556 -0.600416 0.745812 255 255 255 255 
-0.283175 -0.0117046 -0.0355074 -0.769232 -0.255066 -0.585853 255 255 255 255 
-0.183368 -0.10315 -0.031654 -0.599431 -0.771309 -0.213927 255 255 255 255 
-0.0614846 0.0559797 -0.22946 -0.588955 0.517428 -0.620806 255 255 255 255 
-0.118345 -0.166798 0.0127699 -0.769318 -0.633902 0.0794936 255 255 255 255 
-0.115608 0.141235 -0.0734757 -0.645611 0.615057 -0.452649 255 255 255 255 
0.0979284 0.180329 0.0535362 0.70647 0.601168 0.373494 255 255 255 255 
-0.00969082 0.0212852 0.296276 0.297283 0.503875 0.811007 255 255 255 255 
-0.0207819 -0.17913 0.108989 -0.132825 -0.61111 0.780322 255 255 255 255 
0.086857 0.0739484 0.175833 0.618383 0.521588 0.587834 255 255 255 255 
-0.122744 -0.0664187 -0.138203 -0.660972 -0.415868 -0.624636 255 255 255 255 
0.268297 -0.0469981 0.0101251 0.716844 -0.669243 0.195574 255 255 255 255 
-0.0148453 0.0453304 0.276568 0.0261388 0.712536 0.701149 255 255 255 255 
-0.0338352 -0.162522 0.117392 -0.232162 -0.627896 0.742865 255 255 255 255 
0.0688132 0.12754 0.131749 0.441026 0.635751 0.633496 255 255 255 255 
0.0096562 -0.00563396 -0.2965 0.177814 -0.346929 -0.920881 255 255 255 255 
0.0527693 -0.266515 -0.00167062 0.682744 -0.730439 0.0178936 255 255 255 255 
0.151941 -0.0289489 0.126485 0.653381 -0.188682 0.733139 255 255 255 255 
0.0596269 0.092337 -0.182292 0.420498 0.688789 -0.590551 255 255 255 255 
0.0955646 -0.158762 0.0805952 0.614845 -0.5956 0.516939 255 255 255 255 
-0.252998 -0.0310007 -0.0577935 -0.672691 -0.34153 -0.656387 255 255 255 255 
0.238797 -0.00518485 0.0740061 0.624766 -0.0202923 0.780549 255 255 255 255 
-0.00123928 0.0748257 0.238644 0.0204819 0.785834 0.618098 255 255 255 255 
-0.0622961 0.167075 -0.102948 -0.410583 0.600915 -0.6858 255 255 255 255 
-0.269181 -0.0206816 -0.0472321 -0.720277 -0.289427 -0.630423 255 255 255 255 
0.0427894 -0.168035 0.110514 0.282633 -0.617773 0.733809 255 255 255 255 
-0.123505 0.113005 -0.0967356 -0.598436 0.593578 -0.538089 255 255 255 255 
-0.172227 0.112923 -0.0259967 -0.629919 0.757652 -0.17078 255 255 255 255 
-0.161595 0.117067 -0.0388295 -0.638417 0.721792 -0.267282 255 255 255 255 
-0.0394768 0.026684 -0.274459 -0.555205 0.28355 -0.781887 255 255 255 255 
-0.215541 0.0669134 -0.0618568 -0.595712 0.60319 -0.530366 255 255 255 255 
0.0992345 -0.183724 -0.0418719 0.745747 -0.592461 -0.304714 255 255 255 255 
-0.0245207 0.180947 0.106496 -0.192797 0.607902 0.770249 255 255 255 255 
-0.0491799 0.153004 -0.119964 -0.319832 0.629077 -0.708498 255 255 255 255 
-0.208341 -0.0827016 -0.0482243 -0.598951 -0.711124 -0.368186 255 255 255 255 
-0.204805 -0.0845317 0.0484069 -0.600405 -0.712521 0.363081 255 255 255 255 
-0.171477 0.0580305 -0.10182 -0.602895 0.403178 -0.688452 255 255 255 255 
-0.0729696 -0.150204 -0.110778 -0.454976 -0.618759 -0.640417 255 255 255 255 
-0.12132 0.142853 0.0637406 -0.667472 0.621785 0.409713 255 255 255 255 
0.0636583 0.230826 -0.0511951 0.598308 0.619903 -0.507689 255 255 255 255 
-0.129403 0.0688857 0.130556 -0.637016 0.419476 0.646723 255 255 255 255 
0.117805 -0.164372 -0.0255734 0.751069 -0.634392 -0.182874 255 255 255 255 
0.0330448 0.134458 0.143158 0.213793 0.704638 0.676593 255 255 255 255 
0.146107 -0.135139 0.0117648 0.688155 -0.722749 0.0638562 255 255 255 255 
-0.102946 -0.0514649 0.172654 -0.717326 -0.358693 0.597313 255 255 255 255 
-0.0337715 -0.288349 -0.00228524 -0.553078 -0.811992 -0.186477 255 255 255 255 
0.176584 -0.0921681 0.068015 0.59377 -0.628096 0.502924 255 255 255 255 
-0.191427 -0.00312529 0.102419 -0.59679 -0.0294934 0.801855 255 255 255 255 
-0.170926 -0.00605825 -0.116989 -0.644792 -0.0201357 -0.764093 255 255 255 255 
-0.095447 -0.123589 -0.115491 -0.547122 -0.596123 -0.587618 255 255 255 255 
-0.101882 -0.0311171 0.185961 -0.769763 -0.229033 0.595826 255 255 255 255 
0.23204 0.0715657 -0.0348182 0.618482 0.722546 -0.308882 255 255 255 255 
0.16042 0.0968283 0.0777295 0.600364 0.603507 0.52473 255 255 255 255 
-0.0354318 -0.14102 -0.137008 -0.211096 -0.680632 -0.701554 255 255 255 255 
-0.111976 0.175475 -0.0194638 -0.769042 0.6207 -0.152666 255 255 255 255 
-0.00787018 -0.0523387 0.268413 -0.284424 -0.635503 0.717801 255 255 255 255 
0.163462 0.0151189 0.119504 0.633704 0.0943221 0.767804 255 255 255 255 
-0.0266671 0.174748 -0.110677 -0.179208 0.607381 -0.773933 255 255 255 255 
0.134195 0.0301842 -0.143351 0.707195 0.187373 -0.681738 255 255 255 255 
-0.155998 0.12408 0.030345 -0.659613 0.730427 0.177163 255 255 255 255 
-0.00674365 0.282047 0.0357407 -0.137406 0.739191 0.65933 255 255 255 255 
-0.0617122 0.254782 0.0152622 -0.739279 0.665039 0.105776 255 255 255 255 
-0.155438 -0.127206 -0.00301574 -0.663045 -0.747766 -0.0349049 255 255 255 255 
-0.0654074 0.13602 0.126132 -0.41528 0.638385 0.64808 255 255 255 255 
-0.112695 -0.0885939 0.131285 -0.612637 -0.513066 0.601198 255 255 255 255 
-0.000920905 -0.160233 0.12364 -0.000439881 -0.650183 0.759778 255 255 255 255 
-0.278756 -0.0347542 -0.0253235 -0.756756 -0.438749 -0.484582 255 255 255 255 
-0.068832 -0.0127902 0.246677 -0.74742 -0.102933 0.656329 255 255 255 255 
-0.218238 -0.0728044 0.052349 -0.606174 -0.66466 0.436785 255 255 255 255 
0.196066 0.0932135 -0.0408128 0.600261 0.753041 -0.269473 255 255 255 255 
-0.187054 -0.104654 0.0133281 -0.606971 -0.791849 0.0675403 255 255 255 255 
0.0434452 0.255822 -0.0472821 0.430795 0.684091 -0.588588 255 255 255 255 
0.112167 -0.100392 -0.121342 0.577515 -0.566376 -0.587959 255 255 255 255 
-0.00315683 -0.114514 0.172983 -0.0271979 -0.778878 0.626585 255 255 255 255 
-0.0653869 0.228935 0.051079 -0.640277 0.617905 0.456332 255 255 255 255 
0.115927 -0.0590492 -0.153182 0.660388 -0.410841 -0.628567 255 255 255 255 
-0.0544434 -0.111864 0.159208 -0.363741 -0.697082 0.617875 255 255 255 255 
-0.220625 0.0850839 0.0127806 -0.603181 0.794616 0.068979 255 255 255 255 
0.0233563 0.0867586 -0.215789 0.184705 0.775219 -0.604086 255 255 255 255 
0.0720034 -0.194149 0.0755442 0.535851 -0.592431 0.601572 255 255 255 255 
0.00154879 -0.0157381 0.298567 0.443634 -0.254411 0.859339 255 255 255 255 
-0.211619 0.049209 0.0787478 -0.595764 0.382072 0.706461 255 255 255 255 
0.0855217 0.0933346 -0.156583 0.532817 0.598276 -0.598475 255 255 255 255 
0.228601 -0.07363 0.0374673 0.626942 -0.71622 0.30655 255 255 255 255 
-0.083123 0.199976 -0.0560436 -0.689516 0.595248 -0.412612 255 255 255 255 
-0.00287088 -0.0279355 -0.28902 0.155123 -0.532946 -0.831809 255 255 255 255 
0.196783 0.094995 0.032796 0.594563 0.771841 0.22529 255 255 255 255 
-0.0703402 -0.187788 -0.083132 -0.518832 -0.599297 -0.609636 255 255 255 255 
0.0713152 -0.010272 -0.243273 0.768827 -0.056628 -0.636944 255 255 255 255 
-0.019391 -0.287047 0.0214268 -0.455547 -0.746774 0.484567 255 255 255 255 
-0.0514591 0.17257 0.103343 -0.35797 0.604709 0.711467 255 255 255 255 
0.227542 -0.054703 0.0636535 0.617424 -0.458831 0.638954 255 255 255 255 
-0.259681 -0.0018706 0.0592198 -0.692034 0.00137142 0.721864 255 255 255 255 
0.0526157 0.0616374 -0.231489 0.523587 0.580443 -0.623652 255 255 255 255 
0.0177583 0.233495 0.0749854 0.146016 0.615867 0.774201 255 255 255 255 
0.146096 -0.0983671 -0.0901049 0.598177 -0.590435 -0.541822 255 255 255 255 
-0.0807753 -0.0817739 0.174845 -0.584035 -0.559668 0.587941 255 255 255 255 
-0.0347772 -0.140314 0.135661 -0.241356 -0.675402 0.696835 255 255 255 255 
-0.0880615 -0.101712 -0.143824 -0.548148 -0.589597 -0.59322 255 255 255 255 
-0.132955 -0.0534593 -0.135482 -0.673166 -0.346977 -0.653035 255 255 255 255 
-0.0375006 -0.0591648 -0.248909 -0.438946 -0.603037 -0.666088 255 255 255 255 
0.13927 -0.133649 -0.0423992 0.66731 -0.692267 -0.274706 255 255 255 255 
-0.0742569 0.232329 0.0273497 -0.752915 0.615303 0.233499 255 255 255 255 
0.157756 0.11578 -0.0505429 0.628956 0.703966 -0.329919 255 255 255 255 
-0.100682 0.0455501 -0.181595 -0.735884 0.327464 -0.592657 255 255 255 255 
-0.164724 -0.0668853 -0.100807 -0.599575 -0.460355 -0.654663 255 255 255 255 
0.062189 -0.252681 0.0180256 0.725165 -0.675222 0.134947 255 255 255 255 
0.114072 -0.038486 0.165159 0.737557 -0.251933 0.626529 255 255 255 255 
0.139264 0.041857 0.134153 0.675983 0.26722 0.686761 255 255 255 255 
-0.203358 -0.0642733 0.0746033 -0.592405 -0.509205 0.624313 255 255 255 255 
-0.263267 0.0413687 0.0417011 -0.726489 0.399731 0.558953 255 255 255 255 
0.0416277 0.0212137 -0.276462 0.46945 0.466063 -0.749935 255 255 255 255 
-0.161878 0.0740768 -0.0989575 -0.600875 0.495331 -0.627373 255 255 255 255 
0.026605 0.0923068 -0.204984 0.208689 0.774026 -0.597773 255 255 255 255 
-0.257444 -0.0580893 -0.0253603 -0.684586 -0.701176 -0.199235 255 255 255 255 
0.0844344 -0.127023 0.121167 0.499063 -0.610507 0.614994 255 255 255 255 
0.179147 0.109062 0.0174942 0.614806 0.781966 0.102678 255 255 255 255 
0.000470336 -0.166001 -0.119859 0.00511025 -0.642878 -0.765952 255 255 255 255 
0.119353 0.0857345 -0.129361 0.605923 0.504778 -0.614863 255 255 255 255 
0.0527396 -0.116817 0.154339 0.334512 -0.696061 0.635296 255 255 255 255 
0.101288 -0.0413653 -0.185109 0.731966 -0.305577 -0.608973 255 255 255 255 
-0.0288568 0.0999302 -0.193003 -0.203021 0.774113 -0.59961 255 255 255 255 
-0.103711 0.027211 -0.186177 -0.77769 0.196133 -0.597268 255 255 255 255 
0.279571 0.0419069 -0.00230107 0.774923 0.624271 -0.0988922 255 255 255 255 
-0.0295082 0.102093 0.186925 -0.2176 0.770909 0.598623 255 255 255 255 
-0.00734217 -0.2944 0.0197702 -0.420755 -0.754227 0.50409 255 255 255 255 
-0.0600238 0.134529 -0.131327 -0.383384 0.645066 -0.660989 255 255 255 255 
0.216318 -0.0716424 -0.060357 0.619093 -0.582299 -0.526927 255 255 255 255 
-0.0457649 -0.0875758 -0.202546 -0.403781 -0.693875 -0.596237 255 255 255 255 
0.0842601 -0.0643049 0.191524 0.671115 -0.43388 0.601126 255 255 255 255 
-0.232548 0.0594319 0.0561241 -0.634089 0.536297 0.557061 255 255 255 255 
-0.186097 -0.0091551 -0.106873 -0.616568 -0.0176231 -0.787104 255 255 255 255 
0.0923998 -0.160594 -0.0819605 0.603577 -0.59704 -0.528429 255 255 255 255 
0.135555 0.108593 -0.0897349 0.600257 0.599667 -0.529236 255 255 255 255 
0.134818 0.120855 -0.0751637 0.619183 0.633173 -0.46444 255 255 255 255 
-0.111614 -0.169965 0.0360298 -0.748384 -0.614668 0.249207 255 255 255 255 
-0.123413 -0.0135769 -0.160175 -0.762739 -0.0896858 -0.640457 255 255 255 255 
0.0384446 0.230909 -0.0714591 0.389492 0.621621 -0.679619 255 255 255 255 
-0.089732 -0.207169 -0.0270325 -0.784838 -0.58735 -0.19761 255 255 255 255 
0.0430881 -0.244484 0.0583125 0.378145 -0.657978 0.651207 255 255 255 255 
0.0152124 -0.0277703 0.286459 0.43248 -0.395023 0.810505 255 255 255 255 
0.127263 -0.0831654 -0.122207 0.604842 -0.507971 -0.613296 255 255 255 255 
-0.0997418 -0.196205 0.00123583 -0.806376 -0.591401 0.00182578 255 255 255 255 
0.123715 -0.045332 -0.152546 0.687586 -0.316758 -0.653368 255 255 255 255 
-0.287836 -0.0297585 0.0112486 -0.701055 -0.702577 0.122098 255 255 255 255 
-0.219765 0.0185134 0.0844994 -0.59872 0.115174 0.792634 255 255 255 255 
-0.0508224 -0.259867 0.0310385 -0.58362 -0.693292 0.422769 255 255 255 255 
0.0662727 0.00221053 0.250553 0.753407 -0.0700487 0.653812 255 255 255 255 
0.000240245 0.301385 0.00444889 0.465558 0.875475 -0.129609 255 255 255 255 
-0.0066225 0.0781688 0.232664 -0.0484148 0.793586 0.606529 255 255 255 255 
0.0587116 0.164605 -0.105728 0.400462 0.609223 -0.684454 255 255 255 255 
0.0399012 -0.111247 0.168002 0.258845 -0.736451 0.625012 255 255 255 255 
-0.0231224 -0.0626086 0.249657 -0.319111 -0.685719 0.654185 255 255 255 255 
-0.139587 -0.0110679 0.140843 -0.709173 -0.0757307 0.700956 255 255 255 255 
0.0466961 0.0983623 0.183196 0.323095 0.738603 0.591672 255 255 255 255 
-0.0615556 0.0604681 0.225655 -0.571271 0.54264 0.615785 255 255 255 255 
-0.198343 0.0923988 0.0411449 -0.599749 0.747406 0.285806 255 255 255 255 
-0.064929 -0.13169 -0.13227 -0.414839 -0.642113 -0.64467 255 255 255 255 
-0.117425 0.054692 -0.153111 -0.696439 0.364915 -0.617907 255 255 255 255 
-0.0897009 0.0387075 0.202941 -0.750871 0.280148 0.598089 255 255 255 255 
-0.242398 0.0330132 -0.0659635 -0.635703 0.287498 -0.716399 255 255 255 255 
0.181404 -0.0472776 -0.10038 0.597086 -0.339194 -0.726936 255 255 255 255 
-0.0951292 -0.147418 0.0914778 -0.575107 -0.59609 0.560293 255 255 255 255 
0.110963 -0.167433 -0.040791 0.736043 -0.617376 -0.277648 255 255 255 255 
-0.258045 0.0601792 0.00789372 -0.69299 0.720553 0.0238612 255 255 255 255 
0.0270293 0.019386 0.282763 0.364281 0.484873 0.795108 255 255 255 255 
0.232865 -0.0626346 0.0518591 0.636593 -0.589587 0.497128 255 255 255 255 
0.118005 0.101885 -0.115088 0.583238 0.561115 -0.587353 255 255 255 255 
0.234475 -0.0355295 -0.0705768 0.622158 -0.227534 -0.749098 255 255 255 255 
0.1047 0.187387 0.011 0.793396 0.604465 0.0717288 255 255 255 255 
0.161258 0.101554 0.0710258 0.605821 0.632117 0.483124 255 255 255 255 
-0.066559 -0.192056 0.0813522 -0.540924 -0.59004 0.599378 255 255 255 255 
-0.140747 -0.120421 -0.067318 -0.630196 -0.656525 -0.414522 255 255 255 255 
0.0570409 0.260435 -0.0169554 0.715662 0.692079 -0.0940944 255 255 255 255 
0.106675 -0.136379 0.0906536 0.599529 -0.600431 0.529195 255 255 255 255 
-0.0821043 0.0425311 0.212476 -0.730159 0.324188 0.601473 255 255 255 255 
-0.142798 0.125082 0.0590462 -0.651784 0.657458 0.378056 255 255 255 255 
-0.0477861 -0.0466362 -0.251949 -0.557155 -0.487139 -0.672513 255 255 255 255 
0.0263689 -0.280022 -0.0297123 0.381654 -0.800838 -0.461517 255 255 255 255 
-0.108416 0.176373 -0.0330463 -0.754529 0.612672 -0.235201 255 255 255 255 
-0.0609918 -0.160633 -0.109674 -0.384747 -0.621878 -0.682083 255 255 255 255 
0.00528097 -0.236511 0.0756204 0.118423 -0.62969 0.767767 255 255 255 255 
-0.0288928 -0.283282 0.0187392 -0.497461 -0.742847 0.448007 255 255 255 255 
-0.1581 0.0898655 -0.0876399 -0.596113 0.582468 -0.552612 255 255 255 255 
0.146395 0.0662986 0.115304 0.620242 0.418574 0.663397 255 255 255 255 
0.104455 0.0177901 0.18745 0.78639 0.125751 0.604796 255 255 255 255 
0.0551937 0.0117223 0.265052 0.709772 -0.0443855 0.703032 255 255 255 255 
-0.144508 0.0645655 -0.119543 -0.629021 0.42413 -0.651496 255 255 255 255 
0.0105319 -0.295886 -0.0118778 0.492379 -0.864521 -0.100825 255 255 255 255 
0.293332 -0.0100328 -0.0212493 0.727772 -0.235217 -0.644221 255 255 255 255 
0.185183 0.0875881 -0.0667107 0.603363 0.6502 -0.461729 255 255 255 255 
0.070336 -0.225058 0.0491924 0.691944 -0.615568 0.377212 255 255 255 255 
0.0677188 -0.104775 0.160001 0.432696 -0.660425 0.613688 255 255 255 255 
-0.034815 -0.278142 -0.0310341 -0.516209 -0.768045 -0.378992 255 255 255 255 
0.182089 -0.0373543 -0.10375 0.601822 -0.258876 -0.755509 255 255 255 255 
-0.21708 -0.0858248 0.0144764 -0.596129 -0.795357 0.109717 255 255 255 255 
-0.0367047 -0.21619 0.0850219 -0.291311 -0.618451 0.729833 255 255 255 255 
0.0584215 -0.219921 0.0680524 0.472198 -0.614436 0.632058 255 255 255 255 
0.286042 -0.00846098 -0.0304399 0.722101 -0.211496 -0.658665 255 255 255 255 
-0.191184 -0.0985003 0.0358813 -0.606719 -0.760221 0.232285 255 255 255 255 
-0.0184106 -0.269054 0.0487929 -0.35165 -0.727816 0.58875 255 255 255 255 
-0.038132 -0.116818 -0.165144 -0.265484 -0.720714 -0.640383 255 255 255 255 
0.280724 0.00931527 -0.0403433 0.716843 -0.0863078 -0.691872 255 255 255 255 
-0.190619 -0.0948343 0.0473389 -0.605198 -0.724221 0.330513 255 255 255 255 
-0.0130996 -0.0948897 -0.207208 -0.0909708 -0.788862 -0.6078 255 255 255 255 
-0.0308847 -0.109936 -0.178258 -0.214471 -0.748164 -0.627895 255 255 255 255 
0.0357586 -0.0301806 0.272901 0.537844 -0.378575 0.753263 255 255 255 255 
0.0434604 -0.0655211 0.236092 0.457304 -0.613142 0.644151 255 255 255 255 
-0.014807 -0.221203 0.0857942 -0.0343087 -0.611449 0.79054 255 255 255 255 
0.0415524 -0.218109 0.0783871 0.325986 -0.605743 0.725815 255 255 255 255 
0.114018 -0.139221 -0.0779415 0.628132 -0.617775 -0.473079 255 255 255 255 
-0.144792 0.111495 0.076547 -0.616847 0.616466 0.489356 255 255 255 255 
0.044183 0.266714 0.0333367 0.686545 0.700648 0.194289 255 255 255 255 
0.121288 -0.00335442 0.162657 0.763167 -0.0205306 0.645875 255 255 255 255 
-0.14742 0.11961 -0.057982 -0.635065 0.671607 -0.381625 255 255 255 255 
-0.0755004 0.0341448 -0.229269 -0.708421 0.336336 -0.620497 255 255 255 255 
-0.0701809 -0.179654 -0.0896492 -0.491555 -0.602607 -0.62868 255 255 255 255 
-0.18396 0.0747682 -0.0803326 -0.587838 0.564427 -0.579541 255 255 255 255 
-0.157939 0.120962 -0.0357058 -0.649686 0.72025 -0.243204 255 255 255 255 
0.169978 -0.100732 0.0629767 0.603209 -0.658286 0.450331 255 255 255 255 
0.101973 -0.0751418 -0.156493 0.615795 -0.50859 -0.601775 255 255 255 255 
0.203285 -0.0170791 -0.0947303 0.588147 -0.104337 -0.801996 255 255 255 255 
0.173302 -0.108438 -0.0368946 0.6146 -0.751221 -0.240692 255 255 255 255 
-0.271622 -0.0344852 0.0384693 -0.69088 -0.636302 0.343227 255 255 255 255 
-0.255182 0.0329105 0.0556293 -0.692322 0.332578 0.640376 255 255 255 255 
0.000515985 -0.0113589 0.299876 0.337762 -0.359985 0.869671 255 255 255 255 
0.00340156 0.159967 0.124514 -0.00413704 0.657967 0.753036 255 255 255 255 
-0.256045 -0.0483078 0.0401917 -0.654395 -0.684022 0.322306 255 255 255 255 
-0.271304 0.0401438 0.0319605 -0.759822 0.435818 0.482424 255 255 255 255 
-0.0845194 -0.0171986 -0.223673 -0.779645 -0.130665 -0.612439 255 255 255 255 
0.0706021 0.110327 -0.149223 0.440321 0.65775 -0.611132 255 255 255 255 
0.110075 -0.0512887 -0.166272 0.688187 -0.374749 -0.621259 255 255 255 255 
0.196817 0.0985163 0.00956457 0.594798 0.801298 0.0643159 255 255 255 255 
0.191751 0.0914528 0.0510858 0.595475 0.721313 0.35372 255 255 255 255 
0.293906 -0.0200752 -0.00777495 0.772227 -0.615625 0.15707 255 255 255 255 
-0.168577 0.117603 -0.00562427 -0.640124 0.767499 -0.0344482 255 255 255 255 
0.0585033 0.0800813 -0.201372 0.462035 0.662009 -0.590143 255 255 255 255 
-0.155619 0.114223 -0.0554927 -0.625734 0.68557 -0.372089 255 255 255 255 
-0.159151 0.124455 -0.0129174 -0.659881 0.746412 -0.0861769 255 255 255 255 
0.174285 0.0932923 -0.0698095 0.604632 0.641568 -0.472029 255 255 255 255 
0.13567 0.142546 0.0290089 0.705187 0.685535 0.180978 255 255 255 255 
0.134599 -0.0556447 -0.13471 0.649327 -0.366055 -0.666617 255 255 255 255 
0.0128744 0.182094 0.109106 0.0682861 0.61365 0.78662 255 255 255 255 
-0.0250324 0.057836 0.257886 -0.141627 0.751894 0.643892 255 255 255 255 
0.211627 -0.0901688 -0.0077063 0.604626 -0.796507 -0.00204102 255 255 255 255 
-0.0528444 0.0970233 0.180785 -0.368634 0.714872 0.594195 255 255 255 255 
-0.18063 0.108031 -0.0220687 -0.617824 0.772102 -0.148835 255 255 255 255 
-0.111272 0.0168204 0.175891 -0.782253 0.10157 0.614625 255 255 255 255 
-0.0535191 -0.179972 -0.0988852 -0.358887 -0.606316 -0.709634 255 255 255 255 
0.0584608 0.157566 0.11115 0.399055 0.610748 0.683917 255 255 255 255 
0.0406369 0.138323 0.136703 0.267722 0.681401 0.681188 255 255 255 255 
0.0193695 -0.279062 0.0353565 0.293885 -0.757783 0.582577 255 255 255 255 
-0.0437497 0.014655 0.272729 -0.685957 0.0864108 0.722493 255 255 255 255 
0.101644 -0.025544 -0.191536 0.773175 -0.176704 -0.609078 255 255 255 255 
0.241943 0.0367305 0.0625933 0.636414 0.330934 0.69675 255 255 255 255 
0.0351625 0.240618 -0.0658526 0.368091 0.641973 -0.672592 255 255 255 255 
0.147982 0.108966 0.0755204 0.611755 0.624805 0.485154 255 255 255 255 
-0.0870558 -0.217975 -0.00292754 -0.803812 -0.592621 -0.051836 255 255 255 255 
-0.0386036 -0.203795 0.0911842 -0.289315 -0.605767 0.741177 255 255 255 255 
-0.0419059 0.000418639 0.276044 -0.664998 -0.0379139 0.745882 255 255 255 255 
0.0922313 0.065774 0.176961 0.656416 0.470243 0.589906 255 255 255 255 
0.0376164 -0.0053746 -0.283194 0.595762 -0.184799 -0.781612 255 255 255 255 
0.0590684 -0.148762 0.118484 0.37159 -0.631181 0.680832 255 255 255 255 
-0.18153 0.102973 -0.0389307 -0.605235 0.743161 -0.285311 255 255 255 255 
-0.114838 0.0718563 0.144806 -0.642026 0.444595 0.624611 255 255 255 255 
0.00353181 0.123773 0.160142 0.0198156 0.7597 0.649971 255 255 255 255 
0.200667 -0.0824488 0.0582899 0.596747 -0.62175 0.507267 255 255 255 255 
-0.161747 0.00275751 -0.123452 -0.66322 0.0359015 -0.747563 255 255 255 255 
-0.0976954 -0.0765898 -0.159141 -0.633726 -0.5039 -0.586921 255 255 255 255 
0.176358 0.0965958 0.0615568 0.600977 0.664206 0.444588 255 255 255 255 
-0.0290416 0.285367 -0.013506 -0.653085 0.731595 -0.195574 255 255 255 255 
0.158737 -0.00528447 0.123802 0.647744 -0.033092 0.761139 255 255 255 255 
-0.168829 0.105701 0.056949 -0.616942 0.690387 0.37782 255 255 255 255 
-0.0153069 0.278786 0.0376944 -0.205359 0.741949 0.638231 255 255 255 255 
-0.0699501 0.13762 0.121645 -0.440782 0.627856 0.641489 255 255 255 255 
-0.295913 -0.00843882 -0.0122285 -0.977648 0.132977 -0.162856 255 255 255 255 
-0.0351287 0.178028 0.105613 -0.258115 0.607298 0.751376 255 255 255 255 
0.031855 -0.237756 -0.0701771 0.424861 -0.643889 -0.636317 255 255 255 255 
-0.178726 -0.00700341 -0.111684 -0.629519 -0.016441 -0.776811 255 255 255 255 
0.0537244 -0.259707 0.0277694 0.670155 -0.707684 0.223779 255 255 255 255 
-0.0222943 -0.0755759 -0.234523 -0.129582 -0.766623 -0.628885 255 255 255 255 
0.0862769 -0.0678963 0.18541 0.646759 -0.468147 0.602114 255 255 255 255 
-0.197816 -0.0122734 -0.0996625 -0.604898 -0.0521458 -0.794594 255 255 255 255 
0.0293383 -0.0551187 0.2582 0.445334 -0.554078 0.703332 255 255 255 255 
0.11116 -0.0306098 -0.175713 0.747829 -0.214766 -0.628194 255 255 255 255 
-0.28277 -0.0331246 0.016504 -0.69136 -0.701514 0.172914 255 255 255 255 
-0.160324 0.110008 0.0608309 -0.62257 0.668455 0.406909 255 255 255 255 
-0.0549049 -0.171985 -0.104022 -0.35525 -0.613371 -0.705389 255 255 255 255 
-0.0138791 -0.244044 0.0720683 -0.0171037 -0.655402 0.755087 255 255 255 255 
0.173813 0.0792587 -0.0857426 0.600543 0.529706 -0.598965 255 255 255 255 
-0.0261628 -0.207563 0.0923162 -0.163735 -0.605609 0.778735 255 255 255 255 
-0.180397 -0.107485 0.0276143 -0.617611 -0.768339 0.167964 255 255 255 255 
-0.00243166 -0.117545 -0.170859 0.0138255 -0.76951 -0.638485 255 255 255 255 
-0.00748643 -0.224724 0.0840027 0.0135858 -0.614295 0.78896 255 255 255 255 
-0.126573 0.134027 -0.0667383 -0.650769 0.633454 -0.418611 255 255 255 255 
0.0173294 -0.252979 -0.0651751 0.268207 -0.70023 -0.661621 255 255 255 255 
0.115967 -0.021368 -0.171127 0.756737 -0.137691 -0.639054 255 255 255 255 
-0.0604671 0.00502908 -0.263067 -0.665363 0.165856 -0.727863 255 255 255 255 
0.192855 0.0916419 -0.0509086 0.603435 0.710048 -0.362902 255 255 255 255 
-0.287797 -0.0311855 0.00345916 -0.704957 -0.704469 0.0822131 255 255 255 255 
-0.0300478 0.0525974 0.262933 -0.198113 0.727754 0.656601 255 255 255 255 
0.0538627 0.15145 0.118775 0.36153 0.628497 0.688685 255 255 255 255 
0.110787 -0.01956 -0.178925 0.769135 -0.127695 -0.626199 255 255 255 255 
-0.0321397 -0.183283 0.104234 -0.21026 -0.604578 0.768294 255 255 255 255 
-0.190598 0.0139301 -0.102473 -0.60067 0.136141 -0.787821 255 255 255 255 
-0.159529 0.122417 0.0237075 -0.654133 0.744492 0.133575 255 255 255 255 
-0.191188 -0.0174717 -0.103277 -0.612051 -0.0988759 -0.784613 255 255 255 255 
0.0661403 -0.0616048 0.21841 0.574755 -0.537008 0.617477 255 255 255 255 
0.186658 0.0912263 -0.0596277 0.604304 0.680491 -0.414425 255 255 255 255 
0.0692064 -0.0636382 0.212814 0.590621 -0.524661 0.613105 255 255 255 255 
-0.191856 -0.101932 -0.0017918 -0.598092 -0.801058 -0.0243398 255 255 255 255 
0.0341056 -0.216075 -0.0848034 0.400144 -0.610884 -0.683158 255 255 255 255 
-0.282648 -0.0192782 0.034786 -0.791825 -0.00506675 0.610727 255 255 255 255 
-0.0639017 0.0141911 -0.256178 -0.675197 0.243425 -0.696314 255 255 255 255 
0.176883 0.101915 -0.0516542 0.609405 0.712323 -0.348168 255 255 255 255 
0.0926308 -0.00530356 -0.209462 0.800529 -0.0220417 -0.598889 255 255 255 255 
-0.161335 0.119377 0.0333887 -0.647166 0.736216 0.197896 255 255 255 255 
0.0677871 -0.0855528 0.186325 0.464727 -0.647645 0.603809 255 255 255 255 
0.0166248 -0.223957 -0.0868718 -0.0180255 -0.632587 -0.77428 255 255 255 255 
0.188055 0.0715896 -0.0811153 0.598143 0.513061 -0.615623 255 255 255 255 
0.00919043 -0.210317 -0.0942589 -0.0141025 -0.615996 -0.787623 255 255 255 255 
-0.073254 -0.0152019 -0.243608 -0.726798 -0.198616 -0.657508 255 255 255 255 
-0.0478925 -0.11119 -0.16737 -0.362445 -0.695845 -0.620027 255 255 255 255 
0.00556104 -0.205102 -0.096977 -0.0220712 -0.611788 -0.790713 255 255 255 255 
-0.0477895 -0.0115805 -0.27236 -0.61557 -0.251769 -0.746784 255 255 255 255 
0.00850898 -0.195988 -0.101901 0.0283142 -0.612181 -0.790211 255 255 255 255 
-0.0629904 -0.0356314 -0.244987 -0.643709 -0.392865 -0.656731 255 255 255 255 
0.0353092 -0.19005 -0.100267 0.292093 -0.608222 -0.73807 255 255 255 255 
-0.0802442 -0.0254116 -0.228065 -0.749516 -0.226201 -0.622141 255 255 255 255 
-0.00254095 -0.21806 -0.0888965 -0.117817 -0.615331 -0.779414 255 255 255 255 
-0.236652 -0.0720004 -0.0300325 -0.631953 -0.749258 -0.19811 255 255 255 255 
0.102513 0.108704 -0.123211 0.551473 0.584073 -0.595597 255 255 255 255 
0.0835804 0.0501355 -0.202976 0.708054 0.388519 -0.589672 255 255 255 255 
0.25936 0.0429702 0.0442002 0.704031 0.395193 0.590053 255 255 255 255 
-0.0749585 0.138814 -0.117611 -0.462992 0.614123 -0.639133 255 255 255 255 
-0.201729 -0.0217949 -0.0962395 -0.604185 -0.131855 -0.785859 255 255 255 255 
-0.00203965 0.0836997 0.224418 -9.75792e-006 0.800806 0.598924 255 255 255 255 
0.00157047 -0.200471 -0.0992487 -0.0372192 -0.608947 -0.792337 255 255 255 255 
0.203681 0.0909572 -0.0331271 0.598927 0.764011 -0.239946 255 255 255 255 
0.167132 -0.0524282 -0.108152 0.607654 -0.358805 -0.708531 255 255 255 255 
0.105195 0.182607 0.027807 0.773342 0.607598 0.181016 255 255 255 255 
0.00736924 -0.259176 0.0588157 0.153643 -0.686965 0.710263 255 255 255 255 
-0.206524 -0.0137064 -0.0941243 -0.600282 -0.0494543 -0.798258 255 255 255 255 
-0.165245 0.112957 -0.0425526 -0.627373 0.720841 -0.294603 255 255 255 255 
-0.153974 -0.0221553 -0.128065 -0.674736 -0.151934 -0.722252 255 255 255 255 
-0.070578 0.198207 -0.0742879 -0.560949 0.596717 -0.573816 255 255 255 255 
0.16762 0.0711914 -0.0968688 0.603317 0.464703 -0.648121 255 255 255 255 
0.268238 0.0480739 -0.0206035 0.705718 0.647726 -0.287078 255 255 255 255 
-0.18345 -0.0177766 -0.108048 -0.621839 -0.0977794 -0.777017 255 255 255 255 
0.158795 0.102613 -0.0728985 0.607551 0.640267 -0.470042 255 255 255 255 
-0.166486 -0.00678297 -0.120252 -0.653574 -0.0327847 -0.756153 255 255 255 255 
0.0960507 -0.0796943 0.159634 0.615848 -0.508325 0.601945 255 255 255 255 
0.192239 0.0582682 -0.0866818 0.591915 0.418809 -0.688648 255 255 255 255 
-0.051509 -0.00175187 -0.272187 -0.634405 -0.100391 -0.766454 255 255 255 255 
-0.0575623 -0.107637 -0.1648 -0.426939 -0.669436 -0.607929 255 255 255 255 
0.0204665 -0.208817 -0.0945401 0.219945 -0.619298 -0.75372 255 255 255 255 
-0.0607501 0.023142 -0.256001 -0.647382 0.310321 -0.696131 255 255 255 255 
-0.0515818 -0.125519 -0.147112 -0.347966 -0.67614 -0.649426 255 255 255 255 
-0.0388093 -0.130864 -0.147101 -0.253847 -0.695159 -0.672544 255 255 255 255 
0.23521 0.0711548 -0.0297056 0.620202 0.747019 -0.239398 255 255 255 255 
0.0575433 -0.25171 -0.0325651 0.636264 -0.674362 -0.374706 255 255 255 255 
0.120761 -0.148826 -0.0526625 0.686813 -0.64077 -0.343077 255 255 255 255 
0.128112 0.110647 0.094516 0.599136 0.586134 0.545421 255 255 255 255 
-0.124352 0.00309765 0.158648 -0.758596 0.0192786 0.651276 255 255 255 255 
-0.0985181 0.147395 0.0880863 -0.595829 0.594427 0.540041 255 255 255 255 
-0.128442 0.120204 0.083721 -0.617143 0.603197 0.505261 255 255 255 255 
0.134191 -0.0182745 0.145627 0.717156 -0.102956 0.689266 255 255 255 255 
0.14454 0.123345 0.0579337 0.643078 0.671181 0.368735 255 255 255 255 
-0.082469 -0.128571 0.120493 -0.494745 -0.608579 0.62037 255 255 255 255 
-0.00527315 -0.136541 -0.146328 -0.00976179 -0.718983 -0.694959 255 255 255 255 
-0.129858 -0.112046 0.0907545 -0.606166 -0.595631 0.527054 255 255 255 255 
-0.106717 0.184368 -0.0167103 -0.782637 0.609725 -0.125356 255 255 255 255 
0.0712668 0.240668 0.0140274 0.765747 0.630631 0.126239 255 255 255 255 
-0.0386891 -0.0463507 0.258126 -0.431312 -0.58725 0.684914 255 255 255 255 
0.0506105 -0.252934 -0.0404592 0.540318 -0.679269 -0.496639 255 255 255 255 
-0.0897372 -0.190067 -0.0557271 -0.703783 -0.591045 -0.394152 255 255 255 255 
-0.0748994 0.234118 -0.0193421 -0.768978 0.618401 -0.162027 255 255 255 255 
-0.00345272 0.287257 -0.0277664 0.0820856 0.773597 -0.628339 255 255 255 255 
0.144503 -0.0540109 0.123745 0.638168 -0.351071 0.685193 255 255 255 255 
0.221985 -0.00407058 0.0836779 0.590474 -0.0039268 0.807047 255 255 255 255 
0.167943 0.0637676 0.0997589 0.594371 0.430802 0.679067 255 255 255 255 
-0.101742 0.0122517 -0.192911 -0.799727 0.0770782 -0.595395 255 255 255 255 
-0.041759 0.106954 0.173602 -0.291583 0.738674 0.607734 255 255 255 255 
-0.0774563 -0.0183966 -0.236028 -0.740372 -0.208516 -0.639039 255 255 255 255 
0.102128 -0.120215 -0.111392 0.557686 -0.595922 -0.577809 255 255 255 255 
-0.0841591 -0.209551 0.040189 -0.73657 -0.591307 0.32836 255 255 255 255 
-0.0271792 0.186994 -0.102609 -0.183095 0.593668 -0.783603 255 255 255 255 
0.127238 -0.00290326 -0.156294 0.744931 -0.000246909 -0.667142 255 255 255 255 
-0.119826 -0.0102001 0.164165 -0.768656 -0.061051 0.636742 255 255 255 255 
-0.150155 0.132247 0.0038647 -0.680099 0.732814 0.0212189 255 255 255 255 
-0.0597029 0.257626 -0.00546615 -0.736048 0.669811 -0.0979119 255 255 255 255 
0.0442563 0.274041 -0.00398601 0.664411 0.74732 -0.00842011 255 255 255 255 
-0.0632642 0.150011 0.114897 -0.411873 0.622319 0.665642 255 255 255 255 
-0.164226 0.0690842 0.099551 -0.594596 0.45295 0.664298 255 255 255 255 
0.233861 0.0545699 -0.0578508 0.623487 0.557119 -0.548528 255 255 255 255 
-0.118818 0.156352 -0.0445054 -0.716552 0.629981 -0.299462 255 255 255 255 
-0.247753 -0.0666992 -0.0165524 -0.646266 -0.760383 -0.0644815 255 255 255 255 
-0.105631 0.183123 -0.0268192 -0.769593 0.608261 -0.194279 255 255 255 255 
-0.0941425 -0.135019 -0.106255 -0.551062 -0.60159 -0.578291 255 255 255 255 
0.156646 0.12408 -0.0247209 0.65266 0.743029 -0.148132 255 255 255 255 
-0.135089 -0.133616 -0.052589 -0.666407 -0.670595 -0.32589 255 255 255 255 
0.0638693 -0.169625 0.0995501 0.425943 -0.601803 0.675578 255 255 255 255 
0.0458897 0.206604 0.0835827 0.361166 0.59066 0.721581 255 255 255 255 
0.101497 0.0990287 0.133116 0.574769 0.558185 0.59839 255 255 255 255 
-0.142993 -0.118691 0.0665516 -0.629677 -0.650117 0.425271 255 255 255 255 
0.0694655 0.189257 0.0805892 0.514517 0.587664 0.624438 255 255 255 255 
-0.186204 0.0873455 0.0659843 -0.595453 0.634307 0.493042 255 255 255 255 
0.129811 -0.0889285 0.113393 0.603686 -0.515887 0.607803 255 255 255 255 
0.104231 -0.0800695 -0.149168 0.604145 -0.521195 -0.602797 255 255 255 255 
-0.0075757 -0.0985327 0.19828 -0.0859144 -0.79982 0.59406 255 255 255 255 
-0.12854 0.129741 0.0718143 -0.641771 0.621626 0.449123 255 255 255 255 
0.0128662 0.180107 -0.109781 0.0907652 0.609704 -0.787415 255 255 255 255 
-0.0810048 -0.0876945 0.167669 -0.560594 -0.580073 0.590974 255 255 255 255 
-0.268797 0.050757 0.000434399 -0.74108 0.669833 -0.0460893 255 255 255 255 
-0.0415822 0.195346 0.0920497 -0.314609 0.589702 0.743823 255 255 255 255 
0.0718832 -0.135818 -0.121884 0.444274 -0.630939 -0.636032 255 255 255 255 
-0.202974 0.0849294 -0.0482463 -0.587781 0.709897 -0.38802 255 255 255 255 
0.0879275 -0.000878679 0.216291 0.802795 -0.0333483 0.595322 255 255 255 255 
-0.131955 0.149154 -0.0197979 -0.726394 0.674826 -0.130238 255 255 255 255 
-0.205057 -0.0794919 -0.0575163 -0.59709 -0.644485 -0.477622 255 255 255 255 
0.148082 -0.0989622 0.0867822 0.597513 -0.583956 0.54952 255 255 255 255 
0.12788 -0.055039 -0.142202 0.659116 -0.370365 -0.65452 255 255 255 255 
-0.088043 -0.0485898 0.196956 -0.724882 -0.360708 0.586887 255 255 255 255 
0.164876 -0.107408 -0.0550023 0.610382 -0.707248 -0.3567 255 255 255 255 
-0.126315 -0.00728426 0.155971 -0.751989 -0.0486059 0.657381 255 255 255 255 
-0.206391 0.0888933 0.0366191 -0.599965 0.759605 0.251082 255 255 255 255 
0.0620859 0.0426932 -0.239576 0.663968 0.397345 -0.633454 255 255 255 255 
-0.0991947 -0.0634182 -0.169397 -0.676601 -0.443257 -0.587992 255 255 255 255 
-0.0578716 0.211839 -0.0740422 -0.461405 0.602426 -0.651297 255 255 255 255 
-0.264693 -0.0421551 0.0369509 -0.669292 -0.680134 0.299108 255 255 255 255 
-0.0916969 0.00888904 0.210099 -0.800836 0.0476508 0.596985 255 255 255 255 
0.153398 -0.0951587 0.0857327 0.594803 -0.579493 0.557134 255 255 255 255 
0.104621 0.0417556 0.177897 0.739442 0.295257 0.60502 255 255 255 255 
0.0822145 -0.217223 0.0325401 0.765954 -0.597632 0.236961 255 255 255 255 
-0.0196894 -0.012405 0.290708 -0.585168 -0.176005 0.791581 255 255 255 255 
-0.20956 0.0416445 0.0837744 -0.593665 0.333442 0.732379 255 255 255 255 
-0.217517 -0.0208418 0.0845831 -0.591482 -0.164078 0.789448 255 255 255 255 
0.202513 -0.0350334 0.0895955 0.582227 -0.262419 0.769511 255 255 255 255 
0.27754 -0.00548015 0.0433112 0.794458 0.0726041 0.602964 255 255 255 255 
-0.0738959 0.228652 0.0354071 -0.733798 0.611588 0.295805 255 255 255 255 
-0.107948 -0.0686973 -0.153666 -0.663776 -0.447916 -0.598977 255 255 255 255 
-0.150402 0.0406309 0.12441 -0.646845 0.256029 0.71836 255 255 255 255 
0.136488 0.0201248 -0.142945 0.711116 0.12826 -0.691277 255 255 255 255 
-0.102113 -0.0685643 -0.161102 -0.663471 -0.458334 -0.591385 255 255 255 255 
-0.166063 0.0104806 -0.119659 -0.648538 0.088169 -0.756059 255 255 255 255 
-0.0395798 -0.0551659 0.248355 -0.417811 -0.631416 0.65326 255 255 255 255 
0.135841 -0.112673 0.0839784 0.60866 -0.606394 0.511683 255 255 255 255 
0.0219751 -0.00680866 -0.292186 0.346386 -0.365972 -0.86376 255 255 255 255 
0.0829897 0.117399 -0.13126 0.487911 0.621427 -0.613002 255 255 255 255 
0.0214199 0.257005 -0.0581142 0.22678 0.690042 -0.687323 255 255 255 255 
0.0797733 -0.165916 -0.0899638 0.541137 -0.594629 -0.594632 255 255 255 255 
-0.105297 -0.0949534 0.13325 -0.593252 -0.539718 0.59729 255 255 255 255 
-0.0790562 0.119622 0.132774 -0.480504 0.624851 0.615368 255 255 255 255 
0.0785395 0.123069 -0.128797 0.47028 0.627352 -0.620698 255 255 255 255 
0.0662948 0.00283906 -0.251004 0.756246 0.0306961 -0.653567 255 255 255 255 
0.0527898 -0.0408867 -0.253268 0.569167 -0.461631 -0.6804 255 255 255 255 
0.164823 0.0380647 0.113808 0.61772 0.252949 0.744607 255 255 255 255 
0.0539181 -0.262966 -0.0188721 0.679566 -0.716105 -0.159321 255 255 255 255 
-0.238409 -0.000364358 -0.0750874 -0.626806 0.0209925 -0.778893 255 255 255 255 
0.0110697 -0.104077 -0.189491 0.106247 -0.788567 -0.605701 255 255 255 255 
-0.0704614 0.22509 -0.0466614 -0.689478 0.610766 -0.38934 255 255 255 255 
-0.099828 0.181371 0.0480226 -0.72258 0.59916 0.344798 255 255 255 255 
0.161284 0.000940545 0.121959 0.641672 0.0018721 0.766977 255 255 255 255 
0.236951 -0.0634343 0.0453488 0.644908 -0.650751 0.400771 255 255 255 255 
-0.268911 0.00792714 0.0505397 -0.73779 0.106403 0.666591 255 255 255 255 
0.135089 -0.123952 0.0700206 0.632629 -0.637552 0.439669 255 255 255 255 
0.223936 -0.0100918 0.0824946 0.595991 -0.0779794 0.799196 255 255 255 255 
0.181667 -0.0815298 -0.0760355 0.591501 -0.58863 -0.551037 255 255 255 255 
-0.259896 0.0188666 -0.0580478 -0.683629 0.135932 -0.717059 255 255 255 255 
0.0836502 -0.0540931 -0.201826 0.68464 -0.41855 -0.596729 255 255 255 255 
0.00962904 -0.151363 0.130488 0.0690692 -0.671266 0.737992 255 255 255 255 
0.0604627 0.111409 -0.155385 0.388686 0.687564 -0.613335 255 255 255 255 
-0.126638 -0.101194 -0.106044 -0.598555 -0.561745 -0.571117 255 255 255 255 
-0.196577 -0.096193 0.0311483 -0.603217 -0.770811 0.20489 255 255 255 255 
-0.146029 -0.0885709 -0.0993388 -0.59914 -0.542234 -0.589079 255 255 255 255 
-0.0448177 0.242393 -0.0590801 -0.434152 0.650263 -0.623434 255 255 255 255 
0.0602824 0.123368 -0.14112 0.387046 0.669707 -0.633789 255 255 255 255 
-0.245395 -0.0177742 0.0678546 -0.641116 -0.138243 0.75489 255 255 255 255 
0.115336 -0.124853 -0.0929233 0.596145 -0.604691 -0.528167 255 255 255 255 
0.0501964 0.167297 -0.108041 0.351426 0.612659 -0.707919 255 255 255 255 
0.0198669 0.290208 -0.00841054 0.542979 0.836188 -0.0772214 255 255 255 255 
0.0969879 0.050429 -0.183314 0.723153 0.342621 -0.599717 255 255 255 255 
-0.015824 0.228041 -0.0802669 -0.147596 0.615555 -0.774149 255 255 255 255 
0.0709462 -0.203369 -0.0658045 0.602644 -0.583116 -0.544789 255 255 255 255 
0.0784528 -0.0987672 -0.156538 0.49597 -0.631504 -0.596 255 255 255 255 
-0.22644 -0.0421824 0.0725216 -0.60755 -0.353721 0.711171 255 255 255 255 
-0.058785 0.209795 0.0734838 -0.455409 0.593746 0.663376 255 255 255 255 
0.144079 0.135507 -0.0220592 0.687713 0.714233 -0.130087 255 255 255 255 
-0.0892828 0.0643319 -0.182789 -0.664299 0.46772 -0.583048 255 255 255 255 
0.192409 0.0355514 0.0957835 0.583331 0.250724 0.772569 255 255 255 255 
0.0155478 -0.130696 0.150457 0.105953 -0.727293 0.6781 255 255 255 255 
-0.11032 0.170638 -0.0392243 -0.740014 0.615497 -0.271188 255 255 255 255 
-0.299528 -0.00588145 0.00299261 -0.912081 0.116627 0.393074 255 255 255 255 
0.0891574 0.151499 -0.0940004 0.549123 0.599157 -0.582645 255 255 255 255 
0.0689423 -0.00534034 -0.24738 0.762557 -0.0288144 -0.646279 255 255 255 255 
0.146775 0.00483943 0.134065 0.684609 0.0268903 0.728414 255 255 255 255 
0.143764 -0.135286 0.0258574 0.686639 -0.708487 0.163016 255 255 255 255 
0.10542 0.175217 -0.0445387 0.733871 0.60855 -0.301827 255 255 255 255 
-0.137798 0.142446 -0.0217882 -0.709446 0.689939 -0.143774 255 255 255 255 
-0.146452 -0.0946733 0.092797 -0.602321 -0.56515 0.563751 255 255 255 255 
-0.155857 -0.111995 0.0609121 -0.623745 -0.670826 0.401167 255 255 255 255 
0.101769 0.145736 -0.0865149 0.592496 0.601827 -0.535492 255 255 255 255 
0.0440547 -0.0511571 0.250983 0.525265 -0.512225 0.679501 255 255 255 255 
0.143821 -0.124932 0.055401 0.646842 -0.672292 0.360027 255 255 255 255 
0.116256 0.00232904 0.169904 0.776173 0.0200422 0.630202 255 255 255 255 
0.224371 0.0302933 0.0771989 0.595856 0.251141 0.762813 255 255 255 255 
-0.0776394 0.16786 0.0904184 -0.526908 0.592083 0.609758 255 255 255 255 
-0.0964694 0.100263 -0.136942 -0.569795 0.570181 -0.591799 255 255 255 255 
0.176184 -0.111896 0.00231452 0.6229 -0.782255 0.00845569 255 255 255 255 
-0.186083 -0.103278 -0.0230282 -0.598993 -0.786013 -0.152941 255 255 255 255 
-0.0698442 0.189245 0.0802278 -0.511511 0.588898 0.625744 255 255 255 255 
0.00290856 -0.190778 0.102765 0.0376563 -0.599213 0.799703 255 255 255 255 
0.205518 0.0404208 -0.0859929 0.583524 0.307064 -0.751806 255 255 255 255 
-0.0898249 0.0104681 -0.215834 -0.792716 0.087719 -0.603247 255 255 255 255 
0.140071 -0.0355797 0.135619 0.677981 -0.230269 0.698082 255 255 255 255 
0.0628842 0.102463 0.166362 0.422133 0.678404 0.601308 255 255 255 255 
