ply
format ascii 1.0
comment VCGLIB generated
element vertex 625
property float x
property float y
property float z
property float nx
property float ny
property float nz
property uchar red
property uchar green
property uchar blue
property uchar alpha
element face 0
property list uchar int vertex_indices
end_header
-0.0842996 0.106893 -0.100812 -0.811982 -0.326623 -0.483738 255 255 255 255 
-0.0582722 -0.0338554 0.0420678 -0.530616 0.0395853 0.846687 255 255 255 255 
-0.0909183 -0.117398 -0.0217952 -0.997658 0.0121207 0.0673197 255 255 255 255 
-0.0640172 0.130668 0.0391083 -0.680733 0.134015 0.720169 255 255 255 255 
-0.100024 -0.213062 -0.0610023 -0.800096 0.517638 -0.303147 255 255 255 255 
-0.0813877 0.0843433 0.0179718 -0.883307 0.00241535 0.468788 255 255 255 255 
-0.0554878 -0.0782435 0.0469091 -0.425091 0.0880983 0.900853 255 255 255 255 
0.017643 0.21733 -0.0725841 -0.564493 0.803322 0.189793 255 255 255 255 
0.0540588 0.0653705 0.0340139 0.764213 -0.0173274 0.644731 255 255 255 255 
-0.0342635 0.137121 -0.120399 0.89489 -0.0333997 -0.445036 255 255 255 255 
0.0767606 -0.145539 -0.0385049 0.991009 -0.0094531 -0.13346 255 255 255 255 
0.073369 -0.309485 -0.092573 0.722499 -0.330464 0.60728 255 255 255 255 
0.0740857 0.105034 0.00856938 0.898823 0.0666923 0.433208 255 255 255 255 
-0.0249191 -0.073795 -0.129101 -0.180213 0.152957 -0.971662 255 255 255 255 
-0.00102759 -0.241388 0.0909668 0.0325862 -0.0163453 0.999335 255 255 255 255 
-0.0331302 -0.291052 -0.0838439 -0.174031 -0.25509 -0.951127 255 255 255 255 
0.0533031 0.154958 0.0249297 0.711755 0.350883 0.608511 255 255 255 255 
0.0732732 0.051821 -0.0380437 0.972841 -0.168207 -0.15902 255 255 255 255 
-0.0917882 -0.0921511 -0.0181292 -0.994131 0.025074 0.10524 255 255 255 255 
-0.044939 0.324759 -0.151866 0.882663 0.182028 0.433326 255 255 255 255 
0.00325933 -0.139888 -0.132701 0.173075 -0.0774981 -0.981855 255 255 255 255 
0.0766916 -0.109495 -0.00418856 0.984657 0.0311247 0.1717 255 255 255 255 
-0.00208344 -0.115414 0.0626824 0.0397539 0.157974 0.986643 255 255 255 255 
0.0613589 0.340177 -0.150804 0.789955 -0.396284 -0.4679 255 255 255 255 
-0.0777692 -0.267616 -0.0951712 -0.321202 -0.865561 -0.384231 255 255 255 255 
0.0466227 -0.285628 0.0551486 0.813266 -0.220302 0.538577 255 255 255 255 
0.0278275 0.032093 -0.0943082 0.127554 0.05709 -0.990187 255 255 255 255 
-0.0961672 0.0975869 -0.0369465 -0.993035 -0.0315564 0.113519 255 255 255 255 
0.0446118 0.309781 -0.0884214 0.150361 0.33097 0.931585 255 255 255 255 
-0.104584 -0.279566 -0.0901795 -0.967228 -0.10075 0.233065 255 255 255 255 
-0.0910416 -0.312194 -0.0710452 -0.959969 -0.121971 0.252157 255 255 255 255 
0.0248284 -0.161892 0.0676797 0.203719 0.240461 0.94904 255 255 255 255 
0.0672625 -0.0247521 -0.0715431 0.899083 0.155633 -0.40918 255 255 255 255 
0.0811463 0.233505 -0.107443 0.956744 0.159682 0.243191 255 255 255 255 
0.0195348 0.0718761 -0.0962519 -0.0977271 -0.109584 -0.989162 255 255 255 255 
-0.0351815 -0.414583 -0.043049 -0.843778 -0.534854 0.0443858 255 255 255 255 
-0.107428 -0.217979 0.00242487 -0.975753 -0.0543641 0.212017 255 255 255 255 
-0.0553954 0.286156 -0.111798 0.174984 0.633404 0.753777 255 255 255 255 
-0.0454073 0.351349 -0.158404 0.886284 0.113287 0.449073 255 255 255 255 
0.0770379 -0.164022 -0.0372575 0.974085 0.091703 -0.20676 255 255 255 255 
-0.0878254 -0.312789 -0.0964619 0.600817 -0.333233 0.726619 255 255 255 255 
0.0326125 0.0150134 0.047476 0.413771 0.0419595 0.909414 255 255 255 255 
-0.0810823 -0.0465614 0.0213317 -0.946468 0.0570881 0.317709 255 255 255 255 
-0.00510925 -0.0606099 0.0594924 0.0497561 0.0448652 0.997753 255 255 255 255 
0.0404211 -0.193499 0.0753418 0.303591 0.201417 0.93127 255 255 255 255 
0.0240515 -0.282191 0.0819811 0.488307 -0.209587 0.84713 255 255 255 255 
0.0683687 -0.14481 0.0301963 0.91391 0.0903561 0.395732 255 255 255 255 
-0.0751752 -0.0251748 -0.0837113 -0.867784 0.159394 -0.470686 255 255 255 255 
0.0773109 -0.133471 -0.0574191 0.979747 -0.0753354 -0.185529 255 255 255 255 
0.0287448 0.0611591 0.0476839 0.308036 0.0255027 0.951033 255 255 255 255 
-0.0286281 -0.0814026 0.0570705 -0.19447 0.0881255 0.976942 255 255 255 255 
-0.107192 -0.203686 -0.000854578 -0.983038 0.0498664 0.176494 255 255 255 255 
-0.0619882 -0.266001 -0.0948319 0.800115 -0.343724 0.491599 255 255 255 255 
-0.077139 0.00873061 0.0168681 -0.933281 0.0170213 0.358744 255 255 255 255 
0.0721843 -0.110687 0.0145192 0.947388 0.0553792 0.315261 255 255 255 255 
-0.0730852 -0.144275 -0.106115 -0.561463 -0.104109 -0.820927 255 255 255 255 
-0.0596667 -0.333671 0.0489861 -0.878947 0.133233 0.457931 255 255 255 255 
0.0561877 -0.32895 -0.076688 0.25763 -0.131267 -0.957286 255 255 255 255 
-0.0771931 -0.21152 0.0591489 -0.733608 0.018411 0.679324 255 255 255 255 
0.0476957 0.16693 0.0204457 0.392001 0.675233 0.624817 255 255 255 255 
-0.0196487 0.00983629 -0.102254 -0.100578 0.209964 -0.972522 255 255 255 255 
-0.0485517 -0.249364 -0.141815 0.245322 0.273715 -0.929998 255 255 255 255 
0.0159327 0.214763 -0.0916267 -0.985282 0.151587 -0.0789949 255 255 255 255 
0.0391144 0.136181 -0.133515 -0.561448 -0.194494 -0.804331 255 255 255 255 
-0.0711333 0.047616 0.0305129 -0.751263 -0.0216202 0.659649 255 255 255 255 
-0.0806553 -0.175834 -0.058884 -0.964163 -0.0476341 -0.260999 255 255 255 255 
-0.104283 -0.19587 -0.0266825 -0.898513 0.362366 -0.247721 255 255 255 255 
0.0080655 -0.0421983 -0.122285 0.140904 0.239635 -0.960584 255 255 255 255 
0.0198977 0.198058 -0.120054 -0.950125 0.0737623 -0.30302 255 255 255 255 
0.0530341 -0.0180654 -0.0912893 0.735777 0.184964 -0.651475 255 255 255 255 
0.0852564 0.144196 -0.0712882 0.99955 -0.0158721 0.0254671 255 255 255 255 
0.0769925 -0.180372 -0.0454808 0.940685 0.175028 -0.29065 255 255 255 255 
-0.00329397 0.17985 0.0488842 -0.277782 0.848649 -0.450146 255 255 255 255 
0.0225489 -0.277605 -0.0976443 0.186169 -0.703602 -0.685773 255 255 255 255 
-0.0445071 0.00230175 0.0489431 -0.445475 0.0338221 0.894655 255 255 255 255 
0.0472031 -0.234644 -0.138273 -0.634084 0.262173 -0.727464 255 255 255 255 
-0.0101351 0.198899 -0.0555617 0.559905 0.828481 -0.0112398 255 255 255 255 
0.0775346 0.162161 -0.122895 0.9029 -0.0727921 -0.423643 255 255 255 255 
-0.0314163 -0.295393 0.078103 -0.320836 -0.207858 0.924045 255 255 255 255 
-0.103897 0.187157 -0.104932 -0.963476 0.184183 0.194397 255 255 255 255 
0.0799738 -0.2091 -0.0748071 0.896494 0.306286 -0.320138 255 255 255 255 
0.0710267 -0.193682 0.0439219 0.871119 0.0786801 0.484728 255 255 255 255 
-0.0422991 0.074254 0.0488198 -0.327523 -0.0146454 0.94473 255 255 255 255 
0.0769452 -0.114976 -0.0791592 0.948685 -0.0485371 -0.312475 255 255 255 255 
0.0455022 0.0201846 -0.0937768 0.847671 -0.0152979 -0.530301 255 255 255 255 
0.0126784 0.00154403 0.056252 0.247478 0.0418768 0.967988 255 255 255 255 
-0.0269955 -0.36461 0.0618086 -0.121483 -0.380747 0.916665 255 255 255 255 
-0.0647638 -0.250033 0.0694906 -0.765282 -0.168514 0.621246 255 255 255 255 
-0.0862039 -0.134896 0.00941924 -0.962708 0.0975611 0.25234 255 255 255 255 
-0.0895104 -0.134597 -0.0568682 -0.986645 -0.0858073 -0.138455 255 255 255 255 
0.0309851 0.0401406 -0.0933749 0.0950071 0.0178731 -0.995316 255 255 255 255 
-0.0395984 0.232419 -0.0846696 0.945456 0.325691 -0.00623632 255 255 255 255 
0.00647029 -0.212108 -0.126885 0.105684 -0.154703 -0.982292 255 255 255 255 
-0.0123774 0.20047 -0.0454968 0.55909 0.829107 -0.000551431 255 255 255 255 
0.0903145 -0.21276 -0.0367278 0.984103 0.151936 -0.0919622 255 255 255 255 
0.0727931 -0.359407 -0.140719 -0.818982 -0.379139 0.430723 255 255 255 255 
-0.0877141 0.219875 -0.0825641 -0.866212 0.341809 0.364478 255 255 255 255 
-0.0823024 0.249636 -0.0954829 -0.883065 0.286996 0.371254 255 255 255 255 
-0.0308374 -0.349616 -0.0834467 -0.134324 -0.0855058 -0.987242 255 255 255 255 
0.0706652 -0.0550683 0.0211242 0.981891 0.0449267 0.184042 255 255 255 255 
0.0424682 -0.172644 -0.110843 0.633127 -0.12339 -0.76415 255 255 255 255 
0.0620737 -0.181747 0.0553116 0.833315 0.0898629 0.545446 255 255 255 255 
0.0167091 -0.413002 0.0170379 0.155407 -0.794135 0.587536 255 255 255 255 
0.0316946 0.102157 0.0481586 0.296952 0.0081552 0.954857 255 255 255 255 
-0.00997313 -0.426839 -0.00450305 -0.0197989 -0.860977 0.508258 255 255 255 255 
-0.102677 -0.190712 -0.0255862 -0.935148 0.308258 -0.174569 255 255 255 255 
-0.0324155 -0.295467 -0.0752695 -0.266374 -0.736727 -0.621513 255 255 255 255 
0.0411777 -0.279291 -0.129581 -0.841717 -0.248778 -0.479188 255 255 255 255 
0.0644727 -0.365925 -0.0174703 0.860435 -0.504192 -0.0737762 255 255 255 255 
0.0641966 -0.261781 0.044402 0.836273 -0.270405 0.476999 255 255 255 255 
0.0884611 -0.303996 -0.105376 0.769859 -0.278878 0.574059 255 255 255 255 
-0.00712205 -0.128614 -0.134709 -0.0280926 -0.0509387 -0.998307 255 255 255 255 
-0.0393597 -0.405166 -0.0624278 -0.855034 -0.516903 0.041565 255 255 255 255 
-0.0781934 -0.140277 -0.0987667 -0.929175 -0.127236 -0.347052 255 255 255 255 
-0.0902774 -0.399322 -0.158919 0.266544 -0.0626005 -0.961788 255 255 255 255 
-0.0389694 0.185993 -0.133892 0.916483 0.0585718 -0.395763 255 255 255 255 
-0.077646 -0.323098 0.00770387 -0.896618 0.352363 0.268171 255 255 255 255 
0.0989596 -0.26187 -0.112335 0.94647 -0.121454 0.29907 255 255 255 255 
-0.0279166 -0.427619 -0.00775464 -0.0681327 -0.85816 0.508842 255 255 255 255 
0.0634751 -0.36341 -0.0303307 0.855899 -0.495787 -0.147083 255 255 255 255 
0.0836272 0.194117 -0.114517 0.917302 0.000507977 -0.398193 255 255 255 255 
-0.0554999 -0.282113 -0.0803502 -0.314129 -0.813246 -0.489851 255 255 255 255 
0.0283197 -0.341437 0.0629154 0.298324 -0.242257 0.923209 255 255 255 255 
-0.0711824 -0.25384 0.0590366 -0.812262 -0.198334 0.548538 255 255 255 255 
0.0834511 -0.226397 0.0256243 0.922877 -0.0239312 0.384349 255 255 255 255 
-0.0895721 -0.0502134 -0.00990355 -0.987 0.0611672 0.148624 255 255 255 255 
-0.0704709 -0.308188 -0.110205 0.646705 -0.327184 0.689001 255 255 255 255 
0.0532495 -0.290343 -0.142399 -0.759816 -0.185844 -0.62301 255 255 255 255 
-0.0735125 -0.351517 0.0312513 -0.906138 0.217179 0.36297 255 255 255 255 
0.0708703 0.107131 -0.101546 0.879428 -0.273178 -0.389846 255 255 255 255 
-0.10229 -0.189044 0.00383313 -0.967286 0.159071 0.197619 255 255 255 255 
0.0344902 -0.283268 -0.0852849 0.258453 -0.769014 -0.584653 255 255 255 255 
0.0228184 -0.238018 -0.120417 0.184606 -0.285711 -0.940367 255 255 255 255 
-0.0954166 0.232929 -0.116711 -0.917869 0.247058 0.31061 255 255 255 255 
0.0669054 0.00777899 0.0107516 0.955823 -0.0134148 0.293637 255 255 255 255 
-0.0297826 0.00328835 -0.102492 -0.16826 0.227189 -0.959205 255 255 255 255 
0.0744634 -0.283489 -0.151 0.0392078 0.156684 -0.98687 255 255 255 255 
-0.0204507 -0.436184 -0.0786117 -0.502586 -0.840101 0.204056 255 255 255 255 
-0.0876133 -0.10244 0.00412539 -0.972628 0.0377891 0.229273 255 255 255 255 
0.0847968 0.107464 -0.0322902 0.995374 -0.0153292 0.094845 255 255 255 255 
-0.0637107 -0.171239 -0.106323 -0.511773 -0.130683 -0.849123 255 255 255 255 
-0.0851706 -0.296525 -0.0364761 -0.978471 -0.1041 -0.178204 255 255 255 255 
-0.045912 -0.159709 0.0655964 -0.289425 0.235006 0.927904 255 255 255 255 
0.0845696 -0.269452 -0.0305143 0.713167 -0.700729 0.0192714 255 255 255 255 
-0.0250004 0.199462 -0.0802062 0.914623 0.359862 -0.184294 255 255 255 255 
-0.0433065 0.332854 -0.157443 0.872104 0.158808 0.462833 255 255 255 255 
0.0866486 -0.2619 -0.147102 0.85633 0.297762 -0.421944 255 255 255 255 
0.00608754 0.184766 0.0677184 0.557859 0.684974 -0.468619 255 255 255 255 
-0.0724061 -0.17529 -0.0886753 -0.937423 -0.113358 -0.329225 255 255 255 255 
-0.0407726 -0.284905 -0.0847045 -0.266512 -0.739476 -0.61818 255 255 255 255 
0.0312575 0.223469 -0.0517351 -0.0175905 0.781286 0.623926 255 255 255 255 
-0.0286279 -0.0471115 -0.121509 -0.224471 0.234477 -0.945851 255 255 255 255 
0.0808918 0.104721 -0.0739922 0.960513 -0.188258 -0.204876 255 255 255 255 
0.0216421 -0.402893 -0.0966265 0.367491 -0.344558 -0.863846 255 255 255 255 
-0.0844685 0.17869 -0.0314226 -0.879938 0.307865 0.36184 255 255 255 255 
0.0504825 -0.0248755 -0.0969357 0.653067 0.210325 -0.727508 255 255 255 255 
-0.0699255 0.116071 0.0346656 -0.777311 0.0959709 0.621753 255 255 255 255 
0.0920519 -0.253855 -0.0865159 0.985856 -0.115839 0.121118 255 255 255 255 
-0.0950572 0.0798743 -0.0462662 -0.986543 -0.139904 -0.0846111 255 255 255 255 
-0.0284448 -0.235502 0.0887256 -0.158995 0.0185894 0.987104 255 255 255 255 
-4.9521e-005 0.176207 0.0164923 0.059805 0.866841 0.494985 255 255 255 255 
-0.0622739 -0.291958 0.0515401 -0.847927 -0.16759 0.502924 255 255 255 255 
-0.0499905 0.0240295 -0.0916819 -0.187455 0.118682 -0.975077 255 255 255 255 
0.0554614 0.0109389 0.0314251 0.678229 0.0214395 0.734538 255 255 255 255 
-0.0922725 0.105261 -0.0150976 -0.962434 0.0371071 0.268966 255 255 255 255 
0.100411 -0.275571 -0.125117 0.972585 0.180808 -0.146246 255 255 255 255 
0.0688451 0.175907 -0.13568 0.82197 -0.0459178 -0.567677 255 255 255 255 
-0.0777957 0.0268389 -0.0606217 -0.94518 -0.0640205 -0.320214 255 255 255 255 
-0.0363989 -0.119425 0.0586306 -0.242397 0.16797 0.955526 255 255 255 255 
0.081049 -0.170154 0.00748199 0.972897 0.11243 0.202067 255 255 255 255 
-0.0729444 -0.202858 0.0624518 -0.677285 0.0843709 0.730867 255 255 255 255 
-0.0297222 -0.412364 0.0189526 -0.0625664 -0.790515 0.609238 255 255 255 255 
0.0318432 0.17065 0.0268859 0.344869 0.692791 0.633329 255 255 255 255 
0.0571375 -0.268136 0.0506742 0.822202 -0.258617 0.507051 255 255 255 255 
0.0814942 -0.223165 0.0292346 0.910515 -0.00858949 0.413388 255 255 255 255 
0.0358558 -0.387242 0.0396355 0.318828 -0.636305 0.70247 255 255 255 255 
0.041671 -0.162925 -0.113997 0.582733 -0.13658 -0.801105 255 255 255 255 
0.0936277 -0.272997 -0.100712 0.920709 -0.172579 0.350015 255 255 255 255 
-0.0850516 0.257631 -0.104917 -0.912341 0.247406 0.326227 255 255 255 255 
0.0665927 -0.357418 0.0143735 0.913589 -0.294908 0.279973 255 255 255 255 
-0.0619615 0.0296621 0.0375259 -0.560681 0.00695089 0.828002 255 255 255 255 
-0.0408741 -0.0727832 0.0532078 -0.332485 0.07595 0.940045 255 255 255 255 
0.0474601 0.0402182 -0.0955639 0.868504 -0.154184 -0.471093 255 255 255 255 
0.0789981 -0.274829 -0.0280786 0.69012 -0.723423 0.0198251 255 255 255 255 
-0.0797795 0.354115 -0.143168 -0.974886 0.0182155 0.221959 255 255 255 255 
-0.0883848 0.25148 -0.109932 -0.916986 0.24201 0.317124 255 255 255 255 
-0.0429596 0.26124 -0.107568 0.965737 0.23181 0.116685 255 255 255 255 
0.0833463 0.0845027 -0.0194159 0.99146 -0.0838775 0.0998599 255 255 255 255 
-0.0488698 0.245797 -0.0815133 0.206472 0.674787 0.708542 255 255 255 255 
-0.0968283 -0.30142 -0.0807141 -0.941302 -0.132247 0.310582 255 255 255 255 
-0.023739 0.152423 -0.102326 0.415465 0.152485 -0.896737 255 255 255 255 
0.0578849 -0.296988 -0.0674549 0.756632 -0.398282 0.518535 255 255 255 255 
-0.0424734 -0.346411 -0.0816702 -0.195648 -0.0736917 -0.977901 255 255 255 255 
-0.0509998 -0.259583 0.0801065 -0.44031 -0.13474 0.887678 255 255 255 255 
0.0858695 -0.214931 -0.0636696 0.945769 0.25814 -0.19719 255 255 255 255 
-0.0255897 -0.428745 -0.0324089 -0.803917 -0.588552 0.0855796 255 255 255 255 
0.0621716 -0.101451 0.0338321 0.643862 0.105199 0.757876 255 255 255 255 
0.0712527 -0.229597 0.0479394 0.846913 -0.0660761 0.52761 255 255 255 255 
0.0743814 -0.0218349 -0.012299 0.998925 0.0438469 0.0150653 255 255 255 255 
-0.0729458 -0.319835 -0.0707451 -0.864864 -0.11314 -0.489091 255 255 255 255 
-0.0378102 -0.0293675 0.0534746 -0.382947 0.0353929 0.923092 255 255 255 255 
0.0138506 0.192573 0.0789127 0.967942 -0.154864 0.197749 255 255 255 255 
0.0132329 0.131273 -0.107049 -0.729593 -0.174109 -0.661347 255 255 255 255 
0.0144911 -0.369192 0.0594485 0.129788 -0.411779 0.901994 255 255 255 255 
-0.0171223 -0.0524683 -0.12534 -0.107614 0.220957 -0.969328 255 255 255 255 
0.0802679 0.130673 -0.0248701 0.964103 0.122209 0.235735 255 255 255 255 
-0.0867586 0.277495 -0.119772 -0.942627 0.220126 0.250994 255 255 255 255 
-0.0865805 -0.276016 -0.0583079 -0.439119 -0.880011 -0.180983 255 255 255 255 
0.00542416 -0.237845 -0.124201 0.0601178 -0.292034 -0.954517 255 255 255 255 
0.0491927 -0.352197 -0.0751603 0.300581 -0.159667 -0.940297 255 255 255 255 
-0.0292618 -0.32428 0.0716877 -0.280258 -0.227767 0.932511 255 255 255 255 
-0.070356 -0.312351 -0.0614922 -0.634882 0.758997 -0.144389 255 255 255 255 
-0.0651106 0.161533 0.0250799 -0.799843 0.251922 0.544781 255 255 255 255 
0.0779226 -0.248123 0.0315657 0.8775 -0.233197 0.419062 255 255 255 255 
0.0277562 0.171855 0.0230904 0.191697 0.813185 0.549529 255 255 255 255 
0.0348694 0.34092 -0.1251 -0.944575 0.190367 0.267465 255 255 255 255 
0.0702515 -0.00313452 0.00280718 0.981433 0.000680611 0.191805 255 255 255 255 
0.00986033 0.16074 -0.0974309 -0.920666 -0.0121688 -0.390162 255 255 255 255 
-0.0347728 -0.385139 -0.0929872 -0.854993 -0.0234923 -0.518108 255 255 255 255 
0.00828787 0.188482 -0.066226 -0.980874 0.13071 -0.144227 255 255 255 255 
0.0123981 0.199431 -0.086029 -0.980373 0.130712 -0.147589 255 255 255 255 
0.023833 0.264758 -0.13272 -0.99207 0.110798 0.059341 255 255 255 255 
-0.0760769 -0.308226 -0.0139391 -0.829903 0.543727 0.124985 255 255 255 255 
-0.086152 -0.203304 -0.106305 -0.861939 0.461011 -0.211021 255 255 255 255 
0.0535344 -0.303011 -0.0337892 0.491161 0.837571 -0.23924 255 255 255 255 
-0.0860538 0.162317 -0.0235097 -0.91522 0.232097 0.329397 255 255 255 255 
0.0631766 0.0827848 -0.0941459 0.855889 -0.285701 -0.431079 255 255 255 255 
0.0650022 -0.334226 -0.139502 -0.81461 -0.412185 0.40806 255 255 255 255 
0.0338805 -0.30322 0.0659652 0.706844 -0.198036 0.679083 255 255 255 255 
0.0877626 -0.263365 -0.0464539 0.979731 -0.198498 0.0269361 255 255 255 255 
-0.039796 -0.0774983 -0.125877 -0.308451 0.140462 -0.940813 255 255 255 255 
0.0201284 0.117362 -0.107718 -0.504551 -0.216937 -0.835684 255 255 255 255 
-0.0704893 -0.287843 -0.0383321 -0.514045 -0.846643 -0.137672 255 255 255 255 
-0.0780968 -0.359365 -0.00645053 -0.878688 -0.47562 -0.0411415 255 255 255 255 
0.0528234 -0.294842 -0.0422664 0.711296 -0.693759 0.112945 255 255 255 255 
-0.0671236 -0.196072 0.0659892 -0.613527 0.134447 0.778145 255 255 255 255 
0.0753206 -0.184152 -0.0511763 0.932025 0.180615 -0.314179 255 255 255 255 
-0.0342471 -0.277727 0.0818576 -0.303201 -0.175335 0.936657 255 255 255 255 
-0.00455908 -0.386095 -0.110078 0.197271 -0.0760168 -0.977397 255 255 255 255 
0.0537028 0.0345856 -0.0837246 0.896926 -0.11346 -0.427376 255 255 255 255 
-0.0164215 -0.36296 -0.090749 -0.0232538 0.02439 -0.999432 255 255 255 255 
-0.0908628 -0.188895 0.0337977 -0.857542 0.121014 0.499977 255 255 255 255 
-0.0211043 -0.413091 0.0189427 -0.0253048 -0.797947 0.602197 255 255 255 255 
0.0597848 -0.140406 -0.104177 0.797508 -0.139717 -0.586907 255 255 255 255 
-0.0422737 -0.307652 0.0693364 -0.490778 -0.187036 0.850973 255 255 255 255 
-0.0931395 0.0737767 -0.0223844 -0.986703 -0.0731539 0.145143 255 255 255 255 
0.0763061 -0.324122 -0.112812 -0.779189 -0.468714 0.416139 255 255 255 255 
-0.0587334 -0.371691 -0.0621143 -0.863514 -0.46386 -0.197931 255 255 255 255 
-0.00837336 -0.437443 -0.0374893 -0.334941 -0.885376 0.322373 255 255 255 255 
0.0507911 0.142026 -0.141439 -0.501217 -0.171766 -0.848102 255 255 255 255 
-0.034839 -0.300905 0.0751277 -0.378035 -0.207271 0.90229 255 255 255 255 
-0.0497295 0.130993 -0.126356 -0.352156 -0.174964 -0.919442 255 255 255 255 
0.0178864 -0.297424 -0.0757147 0.177323 -0.761139 -0.623878 255 255 255 255 
0.0801242 -0.102037 -0.0419037 0.999182 0.00114033 -0.0404221 255 255 255 255 
-0.00809167 -0.153588 -0.132021 -0.0462629 -0.0998038 -0.993931 255 255 255 255 
0.0276934 -0.331948 -0.0826446 0.186006 -0.115311 -0.975759 255 255 255 255 
0.0141936 0.183584 -0.104906 -0.957748 0.0630741 -0.280608 255 255 255 255 
0.083565 0.0994881 -0.0159627 0.976544 0.00471664 0.215269 255 255 255 255 
0.0483848 0.0296857 0.0380693 0.608637 0.0157164 0.793293 255 255 255 255 
-0.00942187 0.310337 0.205237 0.437741 -0.26508 0.859137 255 255 255 255 
-0.0201545 -0.128109 0.0637375 -0.113336 0.184401 0.976295 255 255 255 255 
0.0422375 -0.399361 0.0124089 0.70108 -0.603193 0.380323 255 255 255 255 
-0.055941 -0.39084 -0.0232192 -0.871635 -0.487575 -0.0502309 255 255 255 255 
0.030821 -0.0366565 0.0492903 0.383499 0.0402884 0.922662 255 255 255 255 
-0.0799383 -0.0114734 -0.0656234 -0.926935 0.111545 -0.358259 255 255 255 255 
-0.0435489 -0.377265 0.052103 -0.158443 -0.446334 0.880728 255 255 255 255 
-0.0841754 0.0142686 -0.0229987 -0.999919 -0.0115832 0.0052226 255 255 255 255 
0.0166244 0.0484197 -0.0949053 0.0184976 -0.00698566 -0.999804 255 255 255 255 
-0.0547001 -0.271168 -0.109608 0.875433 -0.347049 0.336414 255 255 255 255 
-0.0740063 0.0526911 -0.0790437 -0.888009 -0.179841 -0.423198 255 255 255 255 
-0.00917594 -0.36429 -0.0958475 0.0177509 0.678581 -0.734311 255 255 255 255 
-0.0895429 0.0702075 -0.059858 -0.946352 -0.196066 -0.256858 255 255 255 255 
0.0483181 0.192523 -0.0139961 0.222495 0.772099 0.595281 255 255 255 255 
0.0540974 -0.294968 0.0203828 0.855778 -0.440764 0.270872 255 255 255 255 
-0.0498087 -0.17116 0.0681573 -0.350264 0.235018 0.906687 255 255 255 255 
-0.0537258 -0.209945 0.0779592 -0.438652 0.138602 0.887904 255 255 255 255 
-0.0786477 -0.126623 0.0304052 -0.903908 0.0969336 0.416597 255 255 255 255 
-0.08709 -0.221319 0.045112 -0.822695 -0.0752208 0.563485 255 255 255 255 
-0.105233 -0.240894 -0.0747127 -0.999212 0.00551408 0.0392992 255 255 255 255 
-0.0700633 -0.293566 -0.00838025 -0.790667 -0.612236 -0.00362636 255 255 255 255 
0.0466003 0.112479 -0.128028 -0.566762 -0.258742 -0.782198 255 255 255 255 
-0.0425452 -0.0698775 -0.123305 -0.323113 0.16839 -0.931259 255 255 255 255 
0.0979821 -0.304427 -0.11651 0.911056 -0.102521 0.399332 255 255 255 255 
-0.0243827 0.192058 0.0928937 -0.997964 -0.0139035 0.0622515 255 255 255 255 
-0.0864613 -0.155235 -0.0487659 -0.985856 -0.0408894 -0.162533 255 255 255 255 
-0.0557603 -0.152512 0.0598813 -0.364603 0.219671 0.904881 255 255 255 255 
0.0781731 0.182128 -0.0549371 0.9441 0.192421 0.267673 255 255 255 255 
0.0776303 0.0844487 -0.0635818 0.945005 -0.222023 -0.240149 255 255 255 255 
-0.0767579 -0.0390455 0.0282589 -0.66044 0.0446346 0.749551 255 255 255 255 
-0.0313913 0.194533 -0.113608 0.937138 0.131831 -0.3231 255 255 255 255 
0.00620388 -0.378269 -0.102282 0.22822 -0.000417353 -0.97361 255 255 255 255 
-0.0869351 -0.313449 -0.061179 -0.981882 -0.106846 0.156499 255 255 255 255 
0.0494813 -0.143624 0.0542647 0.42614 0.189337 0.884622 255 255 255 255 
-0.0443255 0.270561 -0.140726 0.812097 -0.0424979 -0.581973 255 255 255 255 
0.108559 -0.39291 -0.179002 0.00671993 0.102261 -0.994735 255 255 255 255 
-0.0257095 0.178316 0.0757459 -0.994599 -0.0579244 0.0861271 255 255 255 255 
0.0558564 -0.0500026 -0.102639 0.69923 0.200868 -0.686097 255 255 255 255 
0.0034571 -0.349914 -0.0847976 0.0860506 -0.130957 -0.987646 255 255 255 255 
0.0562942 -0.369274 -0.0423971 0.834609 -0.513482 -0.199409 255 255 255 255 
-0.0747907 0.0178359 0.0224951 -0.882596 -0.00223973 0.470128 255 255 255 255 
0.0684826 -0.348847 -0.0419426 0.917841 -0.331367 -0.218548 255 255 255 255 
-0.035162 0.166046 -0.125833 0.906608 0.0129237 -0.421776 255 255 255 255 
-0.0576097 -0.242573 -0.142573 0.249196 0.273514 -0.929027 255 255 255 255 
-0.0566893 0.00338346 -0.0937636 -0.318395 0.194305 -0.927831 255 255 255 255 
0.0630437 -0.189065 0.0561912 0.821513 0.0811976 0.564378 255 255 255 255 
-0.090702 0.259907 -0.122273 -0.942213 0.211226 0.260037 255 255 255 255 
0.0974874 -0.280921 -0.138267 0.928352 0.244717 -0.27978 255 255 255 255 
0.0923568 -0.244342 -0.0332718 0.998293 -0.0554413 0.0183633 255 255 255 255 
-0.0192255 0.153158 0.0775282 0.375681 -0.496768 0.782359 255 255 255 255 
0.0137589 -0.290094 -0.086834 0.108425 -0.696227 -0.709585 255 255 255 255 
-0.0836536 0.360023 -0.154899 -0.978918 -0.0283991 0.20227 255 255 255 255 
0.0893486 -0.194912 -0.00755255 0.987556 0.113794 0.108555 255 255 255 255 
-0.0152288 0.11517 0.0552716 -0.036916 -0.0871212 0.995513 255 255 255 255 
0.0164401 -0.211424 -0.124627 0.206302 -0.148907 -0.967092 255 255 255 255 
-0.0311056 -0.425902 -0.0960947 -0.811496 -0.575159 0.10328 255 255 255 255 
-0.0426098 -0.389328 0.0444342 -0.14282 -0.5771 0.804088 255 255 255 255 
-0.0774155 -0.285811 0.00161328 -0.912877 -0.396989 0.0951574 255 255 255 255 
0.0593064 0.19579 -0.143461 0.717078 -0.0274946 -0.696451 255 255 255 255 
0.0926541 -0.270526 -0.14877 0.0182091 0.152422 -0.988148 255 255 255 255 
-0.0486399 0.250826 -0.0852882 0.199044 0.659244 0.725106 255 255 255 255 
-0.0416127 -0.330241 -0.0821665 -0.180378 -0.0835451 -0.980043 255 255 255 255 
0.0621669 -0.128372 0.0371204 0.858385 0.0929417 0.504516 255 255 255 255 
0.0718015 -0.330606 -0.0127648 0.987368 0.156624 0.0239412 255 255 255 255 
0.00482409 0.0933871 -0.100135 -0.133772 -0.121517 -0.983534 255 255 255 255 
-0.0183752 -0.0213269 -0.114457 -0.112932 0.274678 -0.954881 255 255 255 255 
-0.00185638 -0.0282779 0.0596452 0.0813191 0.029831 0.996242 255 255 255 255 
0.0293467 0.157394 -0.132126 -0.553649 -0.128414 -0.82279 255 255 255 255 
0.00961046 -0.267037 -0.110786 0.105381 -0.571746 -0.813635 255 255 255 255 
0.066604 0.013085 0.0110669 0.950395 -0.0191016 0.310457 255 255 255 255 
-0.037608 0.212088 -0.0415198 0.221845 0.876728 0.426771 255 255 255 255 
-0.0706335 -0.029496 -0.093953 -0.763634 0.194211 -0.615747 255 255 255 255 
-0.0855822 -0.0101428 -0.0453479 -0.982729 0.0839648 -0.164905 255 255 255 255 
-0.0632906 0.240377 -0.159737 -0.625346 -0.129101 -0.769595 255 255 255 255 
-0.0839105 0.207326 -0.057717 -0.825152 0.409078 0.389588 255 255 255 255 
-0.0692413 -0.0957808 0.0415245 -0.501396 0.113296 0.857768 255 255 255 255 
0.0305263 -0.29474 0.0718866 0.701772 -0.212889 0.679849 255 255 255 255 
-0.00267796 -0.429798 -0.0100897 -0.0145794 -0.870302 0.492302 255 255 255 255 
-0.0278188 -0.389629 0.0466154 -0.0524247 -0.606562 0.793306 255 255 255 255 
0.0397483 0.251311 -0.139514 -0.0609874 -0.00527147 -0.998125 255 255 255 255 
-0.0511392 -0.395363 -0.0303985 -0.867171 -0.495974 -0.0449793 255 255 255 255 
-0.0426373 -0.0875266 0.0530001 -0.31289 0.106863 0.943759 255 255 255 255 
0.0745408 -0.0719881 0.00514357 0.984469 0.0439549 0.169968 255 255 255 255 
-0.08383 -0.291304 -0.0730115 -0.227681 -0.0748834 -0.970852 255 255 255 255 
0.0797752 0.119542 -0.0923996 0.948239 -0.193967 -0.251434 255 255 255 255 
-0.0124808 0.0324563 0.057295 -0.0500417 0.0436554 0.997793 255 255 255 255 
-0.0157058 -0.0153141 -0.112281 -0.0894455 0.273622 -0.957669 255 255 255 255 
0.0554691 -0.0555591 0.0359767 0.471895 0.0559584 0.879877 255 255 255 255 
-0.00630133 0.0626988 0.054393 0.0111742 0.0239218 0.999651 255 255 255 255 
-0.00458138 0.0399421 0.0564777 0.0364535 0.044843 0.998329 255 255 255 255 
-0.0791959 0.301426 -0.11484 -0.913882 0.279893 0.294076 255 255 255 255 
-0.0571315 0.0667899 -0.0891101 -0.151922 -0.055758 -0.986818 255 255 255 255 
0.0460846 -0.27869 -0.115577 -0.754458 -0.576805 0.313193 255 255 255 255 
-0.00985874 0.187074 0.0638783 -0.271482 0.82416 -0.497049 255 255 255 255 
-0.00887241 -0.408652 0.0259185 0.0377099 -0.777127 0.628213 255 255 255 255 
0.0391957 -0.155563 0.0615282 0.276465 0.222436 0.934927 255 255 255 255 
-0.00631972 -0.167805 -0.130495 0.00607145 -0.109663 -0.99395 255 255 255 255 
-0.0910497 -0.208388 0.0402294 -0.82759 0.0105741 0.561234 255 255 255 255 
0.0438491 0.0438927 0.0414693 0.492264 0.0199752 0.870217 255 255 255 255 
-0.087953 -0.205215 -0.116818 -0.87811 0.430066 -0.209678 255 255 255 255 
0.0763324 0.204079 -0.126599 0.786212 -0.0154004 -0.617765 255 255 255 255 
-0.0279897 0.170337 0.0507941 -0.991063 -0.0829348 0.104481 255 255 255 255 
-0.066759 0.208148 -0.0296742 -0.7075 0.523378 0.474889 255 255 255 255 
0.0842934 0.203484 -0.113277 0.995061 0.0918242 -0.037713 255 255 255 255 
-0.0808204 0.344119 -0.148077 -0.975546 0.031571 0.217517 255 255 255 255 
0.0808943 0.250985 -0.115429 0.953617 0.15339 0.25901 255 255 255 255 
0.05167 -0.300036 0.0317502 0.911965 -0.152322 0.380943 255 255 255 255 
-0.0908695 -0.344851 -0.106311 0.177588 -0.386954 0.904837 255 255 255 255 
-0.0531347 0.166261 0.0284418 -0.137287 0.775518 0.616218 255 255 255 255 
-0.028366 -0.133422 -0.130974 -0.240787 -0.0714946 -0.967941 255 255 255 255 
-0.0783051 -0.059075 -0.0968886 -0.835844 0.149228 -0.528296 255 255 255 255 
0.0584182 -0.325897 0.0257549 0.931979 -0.00954902 0.362386 255 255 255 255 
-0.073644 -0.154398 0.045909 -0.79964 0.158535 0.579174 255 255 255 255 
-0.0130616 -0.123021 0.0636344 -0.0559514 0.173827 0.983185 255 255 255 255 
0.032465 0.394494 -0.162265 -0.218355 0.946423 0.237917 255 255 255 255 
-0.0774904 0.0609282 0.0225923 -0.860206 -0.0289642 0.509124 255 255 255 255 
-0.0684895 0.264082 -0.0905932 0.168381 0.639762 0.749902 255 255 255 255 
-0.0911757 -0.100475 -0.0154162 -0.992992 0.0216439 0.116183 255 255 255 255 
-0.0902852 -0.208077 -0.121338 -0.891766 0.396483 -0.218072 255 255 255 255 
0.0647997 0.0129388 -0.0533883 0.957912 -0.00955223 -0.286903 255 255 255 255 
0.0352919 0.150713 -0.134632 -0.534775 -0.149828 -0.831606 255 255 255 255 
-0.0772345 -0.351828 0.0241462 -0.908207 0.23123 0.348844 255 255 255 255 
-0.00218487 -0.437075 -0.0701146 0.620699 -0.783493 -0.0295297 255 255 255 255 
0.0971384 -0.343849 -0.160188 0.592537 0.492623 -0.637356 255 255 255 255 
0.0629676 0.341938 -0.116013 0.894707 0.114574 0.431708 255 255 255 255 
-0.0511927 0.384317 -0.167427 -0.0469011 0.980025 0.193267 255 255 255 255 
-0.107558 -0.270781 -0.131377 -0.942336 0.179262 -0.282607 255 255 255 255 
-0.0934382 0.0711719 -0.0441691 -0.984295 -0.149138 -0.0944534 255 255 255 255 
0.0918551 -0.231526 -0.0789912 0.994587 0.0938479 -0.0446016 255 255 255 255 
0.0253741 -0.368859 -0.0819559 0.301785 -0.14726 -0.941934 255 255 255 255 
-0.0702475 0.159894 0.0175408 -0.829056 0.253885 0.498206 255 255 255 255 
0.0693166 -0.283341 -0.0267144 0.656208 -0.75458 -0.000257293 255 255 255 255 
0.0141072 -0.1821 -0.12566 0.287297 -0.115355 -0.95087 255 255 255 255 
0.0446296 0.174218 0.0129394 0.314354 0.737264 0.598017 255 255 255 255 
0.102295 -0.306749 -0.12859 0.961245 0.00433077 0.275662 255 255 255 255 
-0.0463541 -0.348135 0.0611203 -0.248971 -0.290589 0.923889 255 255 255 255 
0.0797406 0.159585 -0.0456762 0.961473 0.148585 0.231284 255 255 255 255 
0.0444182 -0.0675421 -0.116724 0.467138 0.16684 -0.868301 255 255 255 255 
0.0622344 -0.143858 -0.0988936 0.826227 -0.146898 -0.543847 255 255 255 255 
0.0384964 -0.202863 0.0791401 0.32154 0.170612 0.931399 255 255 255 255 
0.0424716 -0.394396 -0.0238681 0.754202 -0.6459 -0.118288 255 255 255 255 
0.0653378 -0.320166 -0.0890526 0.722576 -0.331488 0.606629 255 255 255 255 
-0.0240886 -0.352188 -0.0845624 -0.105198 -0.070015 -0.991984 255 255 255 255 
-0.0632825 -0.125 -0.115514 -0.499068 -0.0614009 -0.864385 255 255 255 255 
0.0350815 0.217597 -0.043947 0.0308139 0.789783 0.612611 255 255 255 255 
0.042907 -0.176398 0.0680274 0.279675 0.227721 0.932698 255 255 255 255 
-0.0474614 0.377589 -0.158538 0.910437 0.0735025 0.407064 255 255 255 255 
-0.089661 -0.111139 -0.0783005 -0.965877 -0.0453655 -0.254997 255 255 255 255 
-0.075584 0.230818 -0.0710233 -0.786449 0.437972 0.43552 255 255 255 255 
0.0267057 0.0467766 -0.09386 0.0427196 -0.0123131 -0.999011 255 255 255 255 
0.0745386 0.22749 -0.081816 0.929743 0.203592 0.306803 255 255 255 255 
-0.0943239 0.116165 -0.0911067 -0.89804 -0.25514 -0.358369 255 255 255 255 
-0.0563877 -0.298325 0.0582107 -0.765028 -0.140783 0.62842 255 255 255 255 
0.0759081 -0.0467922 -0.00937383 0.996905 0.0508524 0.0599567 255 255 255 255 
0.0604181 0.25357 -0.069351 0.852895 0.244531 0.461276 255 255 255 255 
-0.0622022 -0.23241 0.0760484 -0.652094 -0.0506191 0.756446 255 255 255 255 
0.0814571 0.0793699 -0.01132 0.962649 -0.0479983 0.266464 255 255 255 255 
-0.0676323 -0.00859013 -0.0872837 -0.849454 0.128836 -0.511692 255 255 255 255 
0.0682447 -0.172584 0.0418468 0.884543 0.0981591 0.456013 255 255 255 255 
0.0194168 0.226453 -0.0881361 -0.98072 0.189767 0.0466626 255 255 255 255 
0.0843224 -0.191239 -0.0364212 0.95504 0.201617 -0.217367 255 255 255 255 
-0.0858521 -0.202319 -0.0845111 -0.815248 0.518549 -0.257832 255 255 255 255 
0.0693829 0.252814 -0.0840567 0.893271 0.207878 0.398565 255 255 255 255 
0.0483317 -0.393504 0.000908144 0.788006 -0.614182 0.0427522 255 255 255 255 
-0.0863975 0.262252 -0.110334 -0.926123 0.23123 0.298042 255 255 255 255 
-0.100269 0.174435 -0.0766339 -0.973638 0.140853 0.179415 255 255 255 255 
-0.0455251 0.109702 0.0499748 -0.374257 0.00787872 0.927292 255 255 255 255 
-0.00732806 -0.19389 -0.128378 -0.0395957 -0.119083 -0.992095 255 255 255 255 
0.0622565 0.289005 -0.140791 -0.0823251 -0.0169373 -0.996462 255 255 255 255 
0.0307253 0.00928041 0.0487366 0.409782 0.0424325 0.911196 255 255 255 255 
-0.0899237 0.229418 -0.0977993 -0.888442 0.293621 0.352785 255 255 255 255 
0.0311333 0.274709 -0.0915862 -0.962072 0.150648 0.227425 255 255 255 255 
0.0218232 -0.178092 0.0745265 0.182276 0.246602 0.951821 255 255 255 255 
-0.079716 0.31082 -0.127241 -0.937925 0.226182 0.26294 255 255 255 255 
-0.0730168 -0.0303337 0.0307629 -0.626073 0.0411268 0.778679 255 255 255 255 
-0.0929388 -0.111299 -0.0423074 -0.999249 -0.02139 -0.0323184 255 255 255 255 
0.0850629 -0.211828 0.0183029 0.94256 0.0535393 0.329718 255 255 255 255 
-0.0901566 0.131961 -0.11104 -0.853104 -0.256975 -0.454068 255 255 255 255 
-0.107304 -0.253671 -0.0905916 -0.996783 -0.00786434 0.0797591 255 255 255 255 
0.0350869 -0.198662 0.0789927 0.287776 0.190331 0.938594 255 255 255 255 
0.0358014 -0.0772319 -0.122525 0.387398 0.135198 -0.911945 255 255 255 255 
-0.0978627 -0.232383 0.0243097 -0.892801 -0.145619 0.426265 255 255 255 255 
0.0143518 0.114166 -0.104487 -0.182417 -0.119095 -0.975982 255 255 255 255 
0.0816883 0.218531 -0.0994558 0.96746 0.161399 0.194862 255 255 255 255 
-0.0550492 -0.317483 -0.0792618 -0.219762 -0.0771641 -0.972497 255 255 255 255 
0.0969597 -0.253832 -0.107405 0.975709 -0.0852627 0.201796 255 255 255 255 
-0.0719652 -0.106202 -0.11148 -0.54643 0.00498193 -0.83749 255 255 255 255 
-0.0311469 -0.419457 -0.050974 -0.831293 -0.550545 0.0764981 255 255 255 255 
-0.073239 0.136236 0.0242597 -0.830819 0.16898 0.53027 255 255 255 255 
-0.0860718 0.0410676 -0.00743551 -0.981535 -0.0740905 0.176349 255 255 255 255 
-0.0404766 -0.408513 0.0221753 -0.10345 -0.769226 0.630547 255 255 255 255 
0.057159 0.0565313 0.0292353 0.794287 -0.0224916 0.607126 255 255 255 255 
0.0265124 0.255922 -0.095044 -0.968955 0.168987 0.180471 255 255 255 255 
-0.0347138 -0.259207 0.0852815 -0.23051 -0.103919 0.967505 255 255 255 255 
-0.0815999 -0.199668 -0.10779 -0.848012 0.48085 -0.222843 255 255 255 255 
-0.0898186 -0.0324712 -0.0491563 -0.979525 0.114032 -0.165911 255 255 255 255 
0.0602918 -0.370824 0.0153709 0.866966 -0.413671 0.277934 255 255 255 255 
-0.0678433 0.258199 -0.159657 -0.671848 -0.142113 -0.726928 255 255 255 255 
0.0751283 -0.0584735 -0.0733302 0.935062 0.124944 -0.331736 255 255 255 255 
-0.0861381 -0.120049 -0.0871221 -0.950596 -0.0743809 -0.301387 255 255 255 255 
0.00388316 0.0292035 0.0563983 0.146166 0.0497508 0.988008 255 255 255 255 
0.0757978 -0.0557278 -0.00505133 0.994639 0.0466942 0.0922702 255 255 255 255 
-0.00381865 -0.437432 -0.0499261 0.671354 -0.738699 -0.0600627 255 255 255 255 
-0.095425 0.095086 -0.0661448 -0.957489 -0.188827 -0.218081 255 255 255 255 
-0.0844228 -0.0855057 -0.0938396 -0.923651 0.0450174 -0.380582 255 255 255 255 
0.0736644 -0.341986 -0.0120472 0.995519 0.0882109 0.0340806 255 255 255 255 
-0.0669675 -0.288436 -0.0467713 -0.476964 -0.859702 -0.182805 255 255 255 255 
0.0129579 0.138127 -0.1039 0.0382253 0.038577 -0.998524 255 255 255 255 
-0.099568 0.148613 -0.0956973 -0.988882 -0.0841019 -0.122638 255 255 255 255 
0.0707893 0.315144 -0.127358 0.903193 -0.0600526 -0.425014 255 255 255 255 
-0.0360619 -0.181441 -0.121216 -0.34635 -0.11956 -0.930455 255 255 255 255 
-0.0384726 0.240739 -0.114546 0.971523 0.235809 0.023193 255 255 255 255 
0.0705095 0.110066 0.0146181 0.877221 0.0888898 0.471785 255 255 255 255 
0.0972852 -0.293294 -0.112311 0.837972 -0.217159 0.500645 255 255 255 255 
0.0100754 -0.187918 0.080637 0.110794 0.241226 0.964124 255 255 255 255 
-0.0856937 -0.0603062 -0.0816117 -0.924821 0.116493 -0.362125 255 255 255 255 
-0.0360169 0.225223 -0.095134 0.956552 0.285459 -0.0593463 255 255 255 255 
-0.0386555 -0.305069 0.0720947 -0.427697 -0.201252 0.881233 255 255 255 255 
0.0300465 -0.164797 0.06753 0.23142 0.237662 0.943378 255 255 255 255 
0.0554719 -0.382367 0.00818489 0.835023 -0.529933 0.148015 255 255 255 255 
-0.0605873 -0.371666 0.0499749 -0.201187 -0.396532 0.895704 255 255 255 255 
-0.0232449 0.20775 -0.0489397 0.567449 0.822778 0.0322008 255 255 255 255 
-0.0465286 -0.132482 -0.123712 -0.393424 -0.0774964 -0.916085 255 255 255 255 
-0.0736138 -0.232551 0.0623056 -0.782952 -0.108716 0.612508 255 255 255 255 
0.0514505 0.263247 -0.0785428 0.211854 0.362286 0.907671 255 255 255 255 
0.0442909 0.19826 -0.140834 -0.37061 -0.021032 -0.92855 255 255 255 255 
0.0723864 0.0588069 -0.0512815 0.955819 -0.195033 -0.219936 255 255 255 255 
0.0482749 -0.277052 -0.0859514 0.308328 -0.785917 -0.535975 255 255 255 255 
-0.00708736 -0.40539 -0.109593 0.219839 -0.136664 -0.965916 255 255 255 255 
0.0307325 -0.22166 0.0865207 0.313134 0.0752999 0.946719 255 255 255 255 
-0.0734063 0.246518 -0.152977 -0.665007 -0.127765 -0.735827 255 255 255 255 
0.0470624 -0.260726 -0.145678 -0.176913 0.15146 -0.972503 255 255 255 255 
-0.0611595 -0.329565 0.0452491 -0.884083 0.134702 0.447497 255 255 255 255 
0.080114 -0.161974 0.00224705 0.980393 0.107974 0.164834 255 255 255 255 
-0.0694541 0.36025 -0.133247 0.672628 0.162607 0.721894 255 255 255 255 
0.0662452 -0.205579 0.0548288 0.825184 0.0415114 0.563337 255 255 255 255 
-8.189e-005 -0.43269 -0.015736 -0.0438625 -0.879234 0.474367 255 255 255 255 
0.0498212 0.337155 -0.154858 -0.780164 -0.375957 -0.500001 255 255 255 255 
-0.0891279 -0.313984 -0.146925 0.0753122 0.0124879 -0.997082 255 255 255 255 
-0.102121 -0.329519 -0.0889316 -0.977111 -0.0280624 0.210872 255 255 255 255 
-0.0123049 -0.0949684 0.0602934 -0.0436832 0.113278 0.992603 255 255 255 255 
-0.0676761 0.107231 -0.111977 -0.552589 -0.294363 -0.779741 255 255 255 255 
0.0759484 0.220837 -0.0805541 0.938021 0.20254 0.281236 255 255 255 255 
0.0340828 -0.255707 0.083489 0.566634 -0.154203 0.809411 255 255 255 255 
-0.0838368 -0.34687 -0.103774 0.886717 -0.256435 0.384673 255 255 255 255 
-0.0745044 0.190536 -0.0214297 -0.810315 0.404803 0.423703 255 255 255 255 
-0.0500102 0.154871 -0.142475 -0.265511 -0.162831 -0.950258 255 255 255 255 
0.0284161 0.301723 -0.119785 -0.971711 0.140298 0.189987 255 255 255 255 
-0.0798283 -0.00339195 -0.061326 -0.94115 0.0808331 -0.328182 255 255 255 255 
-0.100888 -0.194101 0.0153043 -0.947767 0.121669 0.294845 255 255 255 255 
0.0325735 -0.229979 -0.119957 -0.693955 0.27975 -0.663451 255 255 255 255 
-0.0508878 0.0542848 0.0450372 -0.437215 -0.00664227 0.899332 255 255 255 255 
0.0731935 -0.248759 0.0390818 0.859717 -0.224227 0.458922 255 255 255 255 
0.0424455 -0.133577 -0.11949 0.490092 -0.0829447 -0.867715 255 255 255 255 
-0.0904368 -0.30864 -0.0684363 -0.960013 -0.126176 0.249907 255 255 255 255 
0.0515964 -0.0255906 0.0367993 0.509984 0.0475683 0.858868 255 255 255 255 
0.0494602 -0.0056275 0.0370979 0.553282 0.0425209 0.831908 255 255 255 255 
-0.0941916 -0.21376 0.0352602 -0.851292 -0.0251164 0.524091 255 255 255 255 
-0.0744243 0.221323 -0.058176 -0.768953 0.471085 0.432193 255 255 255 255 
0.0407967 0.266901 -0.139401 -0.0473403 -0.00907508 -0.998838 255 255 255 255 
-0.09559 -0.27223 -0.0319683 -0.97401 -0.223388 0.0374556 255 255 255 255 
-0.0787066 -0.0234205 0.0223423 -0.937523 0.0613951 0.342465 255 255 255 255 
-0.0929572 -0.0537387 -0.0318059 -0.997271 0.0705134 0.0218687 255 255 255 255 
0.0588675 -0.318267 0.019253 0.951992 0.0162992 0.305688 255 255 255 255 
-0.082719 -0.315545 -0.0321709 -0.821692 0.56989 0.00687883 255 255 255 255 
-0.0315451 0.204329 -0.109254 0.948598 0.177321 -0.262142 255 255 255 255 
0.0854436 0.17075 -0.072273 0.988442 0.0872938 0.123947 255 255 255 255 
0.0457131 0.0782132 -0.105091 -0.380021 -0.23335 -0.89506 255 255 255 255 
0.0746098 -0.269861 -0.0791476 0.459803 -0.826163 -0.325632 255 255 255 255 
0.0768133 -0.14931 0.00756772 0.972723 0.088597 0.214382 255 255 255 255 
-0.0333339 0.0681374 0.051395 -0.255316 -0.00521836 0.966844 255 255 255 255 
0.00692488 -0.214045 0.0894766 0.088082 0.144934 0.985513 255 255 255 255 
0.0750852 -0.0316996 -0.0107713 0.998067 0.0506138 0.0360632 255 255 255 255 
-0.0845168 0.257482 -0.144344 -0.705542 -0.127352 -0.697132 255 255 255 255 
-0.0254101 -0.239814 -0.13217 0.25939 0.358222 -0.89688 255 255 255 255 
0.0507825 0.0707952 0.038418 0.663271 -0.00492251 0.748363 255 255 255 255 
-0.104857 -0.199562 0.0078761 -0.963573 0.0866057 0.253033 255 255 255 255 
0.0724291 -0.0930639 -0.0925173 0.893518 0.0427201 -0.446992 255 255 255 255 
-0.0690926 0.377685 -0.148574 0.00676202 0.963276 0.268429 255 255 255 255 
0.0769714 -0.12129 -0.0756856 0.955452 -0.0693974 -0.286872 255 255 255 255 
0.0529854 0.257546 -0.076962 0.26449 0.400108 0.877473 255 255 255 255 
-0.0796503 -0.0780942 -0.102054 -0.865386 0.0855988 -0.493741 255 255 255 255 
0.0830816 0.0983672 -0.0535715 0.984512 -0.141842 -0.10304 255 255 255 255 
-0.0698992 -0.245489 0.0639739 -0.793176 -0.165323 0.586123 255 255 255 255 
0.0143252 -0.420523 -0.0536759 0.723521 -0.687065 -0.0667797 255 255 255 255 
-0.0929677 -0.0923878 -0.0642711 -0.9848 0.00850324 -0.173483 255 255 255 255 
0.0803611 -0.352815 -0.164268 -0.859413 0.0487146 -0.508956 255 255 255 255 
-0.0879319 -0.106453 -0.085538 -0.950701 -0.0280434 -0.308839 255 255 255 255 
0.0172087 0.211432 -0.0452856 -0.441561 0.8575 0.264041 255 255 255 255 
-0.0477317 -0.403127 -0.0234455 -0.869013 -0.494429 -0.018864 255 255 255 255 
-0.0897782 -0.10947 -0.00812584 -0.988765 0.0275294 0.146918 255 255 255 255 
0.0219226 -0.072307 0.0539335 0.304795 0.0654028 0.95017 255 255 255 255 
0.00389429 0.12658 -0.105264 -0.0451468 -0.0228706 -0.998719 255 255 255 255 
0.0530333 -0.291955 -0.0494336 0.489196 -0.847444 -0.206217 255 255 255 255 
0.0596934 -0.269469 -0.14893 -0.0987458 0.137929 -0.985507 255 255 255 255 
0.0601735 -0.316546 -0.0671658 0.364932 0.869047 -0.334039 255 255 255 255 
-0.0617711 -0.133282 0.0524306 -0.410361 0.185519 0.892853 255 255 255 255 
-0.129057 -0.393869 -0.156692 -0.979321 0.179491 0.0933457 255 255 255 255 
0.0242388 0.262435 -0.117079 -0.987829 0.123996 0.0939108 255 255 255 255 
-0.0846195 0.381854 -0.163986 -0.0373166 0.977324 0.208434 255 255 255 255 
-0.0992168 0.190917 -0.117645 -0.809395 -0.122943 -0.574252 255 255 255 255 
0.0293534 0.145481 -0.129244 -0.582926 -0.165999 -0.795388 255 255 255 255 
-0.0147181 -0.0975897 -0.134426 -0.0802122 0.0665852 -0.994551 255 255 255 255 
-0.0279325 -0.0875528 -0.131035 -0.209951 0.102599 -0.972314 255 255 255 255 
0.0250518 -0.349596 0.0627223 0.236398 -0.273668 0.932321 255 255 255 255 
-0.110118 -0.315489 -0.124682 -0.994426 0.0797629 0.068953 255 255 255 255 
0.0574688 -0.142251 0.0473195 0.823948 0.109932 0.5559 255 255 255 255 
-0.00109218 0.265725 0.156587 0.333978 0.566899 -0.753049 255 255 255 255 
-0.0432203 -0.242434 -0.11589 -0.212074 -0.321814 -0.922746 255 255 255 255 
0.0324583 -0.163478 -0.11981 0.460754 -0.126192 -0.878511 255 255 255 255 
0.0701059 -0.114659 -0.0971975 0.883183 -0.0487797 -0.466484 255 255 255 255 
-0.0883673 0.12364 -0.00630714 -0.935752 0.106075 0.336327 255 255 255 255 
0.0847382 -0.331989 -0.161908 0.588604 0.465405 -0.661018 255 255 255 255 
0.0609448 -0.282967 0.0221414 0.849457 -0.43337 0.30102 255 255 255 255 
0.0731584 -0.0153581 -0.0060279 0.996978 0.0270761 0.0728096 255 255 255 255 
-0.0810032 0.125952 -0.117995 -0.648355 -0.2832 -0.706706 255 255 255 255 
0.053245 -0.0996701 -0.115653 0.562585 0.0321871 -0.826113 255 255 255 255 
0.00716196 -0.418063 0.0111589 0.0873989 -0.823974 0.559846 255 255 255 255 
-0.0679984 0.15308 0.0252973 -0.807828 0.226436 0.544188 255 255 255 255 
0.0654916 -0.155359 -0.0814245 0.901877 -0.127086 -0.412878 255 255 255 255 
0.0262246 0.228287 -0.0721672 -0.430401 0.816321 0.385195 255 255 255 255 
0.0296338 -0.211911 -0.120539 0.266877 -0.146017 -0.952605 255 255 255 255 
0.0738422 0.143606 -0.0140277 0.928086 0.198979 0.314743 255 255 255 255 
-0.0339739 -0.26884 0.0838374 -0.260054 -0.143771 0.954831 255 255 255 255 
0.0497044 0.226394 -0.141064 -0.188055 -0.00156556 -0.982157 255 255 255 255 
-0.105146 -0.213931 0.013737 -0.94425 -0.0209034 0.328565 255 255 255 255 
0.0784844 -0.171947 -0.0373081 0.961542 0.143149 -0.234406 255 255 255 255 
-0.072068 -0.00254869 -0.0779059 -0.881137 0.0998963 -0.462189 255 255 255 255 
-0.107546 -0.284283 -0.138993 -0.963902 0.1482 -0.221202 255 255 255 255 
0.0915607 -0.221498 -0.0378432 0.990693 0.120071 -0.0641137 255 255 255 255 
-0.0900936 0.121815 -0.0121694 -0.947914 0.094366 0.304227 255 255 255 255 
-0.0897428 -0.135543 -0.0203652 -0.997013 0.0507136 0.0582589 255 255 255 255 
0.0692787 0.050636 0.00920926 0.890702 -0.0414864 0.452691 255 255 255 255 
0.0607156 -0.19144 0.0603654 0.795735 0.0789919 0.600472 255 255 255 255 
-0.067277 0.0255964 0.0330342 -0.638015 0.00520146 0.770006 255 255 255 255 
-0.0310552 0.130581 -0.113506 0.89459 -0.0320803 -0.445734 255 255 255 255 
0.026502 -0.330517 0.0655571 0.350878 -0.228038 0.908231 255 255 255 255 
-0.0256568 0.184891 0.0789083 -0.995517 -0.048512 0.0811962 255 255 255 255 
0.0422759 -0.274319 -0.117053 -0.760538 -0.581513 0.288832 255 255 255 255 
0.063573 -0.110523 0.0325881 0.857116 0.0828707 0.508414 255 255 255 255 
-0.0333907 0.214839 -0.110863 0.957552 0.19374 -0.213444 255 255 255 255 
-0.017983 0.0781611 0.0535292 -0.102511 -0.00728514 0.994705 255 255 255 255 
-0.0544495 -0.229099 -0.137524 0.266618 0.339376 -0.902075 255 255 255 255 
0.0667336 0.15753 -0.00571051 0.8953 0.255372 0.364997 255 255 255 255 
0.0186632 -0.144339 -0.128542 0.309468 -0.0914022 -0.946507 255 255 255 255 
-0.0772941 0.141147 -0.133099 -0.69665 -0.229826 -0.679602 255 255 255 255 
-0.0236987 -0.380726 0.0540079 -0.0465211 -0.537133 0.842214 255 255 255 255 
0.0346561 0.237539 -0.0620968 0.222151 0.578968 0.784503 255 255 255 255 
0.0591506 -0.15238 0.0485143 0.842479 0.108306 0.527729 255 255 255 255 
-0.060258 -0.383284 -0.0269506 -0.868 -0.490398 -0.0780165 255 255 255 255 
-0.0152424 0.180259 0.011561 0.0243618 0.854559 0.518783 255 255 255 255 
0.0504652 0.213915 -0.0415097 0.102025 0.766923 0.633577 255 255 255 255 
0.0682365 0.325547 -0.12388 0.92773 0.101634 0.359148 255 255 255 255 
0.0509727 0.0206255 -0.085992 0.887544 -0.0331604 -0.459529 255 255 255 255 
-0.0271632 -0.328178 0.0714277 -0.280136 -0.229465 0.932132 255 255 255 255 
0.0410853 0.362655 -0.163766 -0.826803 -0.4492 -0.33855 255 255 255 255 
-0.0883279 -0.201929 0.0434732 -0.809021 0.0498034 0.585667 255 255 255 255 
0.0420672 0.230249 -0.139531 -0.194073 -0.000561257 -0.980987 255 255 255 255 
-0.0565456 0.16361 -0.14274 -0.252663 -0.158372 -0.954505 255 255 255 255 
-0.0226465 0.135577 0.0566201 -0.24474 0.0558787 0.967977 255 255 255 255 
-0.00431295 -0.145751 -0.133089 0.0548508 -0.0885393 -0.994561 255 255 255 255 
-0.0255797 -0.195928 -0.124354 -0.240823 -0.11871 -0.963282 255 255 255 255 
-0.0921298 -0.341266 -0.148818 0.207229 -0.00495466 -0.97828 255 255 255 255 
0.100803 -0.29662 -0.120122 0.869239 -0.171491 0.463696 255 255 255 255 
-0.0721532 0.144308 0.0230058 -0.822971 0.198355 0.532328 255 255 255 255 
-0.0439782 0.257333 -0.099531 0.962151 0.249374 0.109898 255 255 255 255 
