ply
format ascii 1.0
comment VCGLIB generated
element vertex 684
property float x
property float y
property float z
property float nx
property float ny
property float nz
property uchar red
property uchar green
property uchar blue
property uchar alpha
element face 0
property list uchar int vertex_indices
end_header
-0.141979 0.101475 -0.0299399 0.467703 0.303293 -0.822429 0 0 0 255 
-0.12745 0.049358 -0.00147884 0.247275 -0.763044 -0.391715 0 0 0 255 
0.137939 -0.153444 -0.0209748 0.073985 -0.867805 -0.361872 0 0 0 255 
0.0875233 -0.200357 -0.211377 0.983484 -0.0334089 -0.112067 0 0 0 255 
0.100951 0.265933 -0.0465933 -0.443767 0.207634 -0.85198 0 0 0 255 
0.0923269 -0.12214 -0.166808 0.982134 -0.0260782 -0.0759449 0 0 0 255 
-0.135734 0.267978 0.0223404 0.434709 0.0814695 0.850656 0 0 0 255 
-0.104268 -0.0791536 -0.105391 -0.25194 -0.0390675 -0.956109 0 0 0 255 
0.0956203 -0.000961669 0.13465 0.00610792 -0.936336 -0.350608 0 0 0 255 
-0.133081 0.0249867 0.00213812 0.500004 -0.735371 -0.354071 0 0 0 255 
0.125611 0.0180167 0.110999 0.00417608 0.939628 0.342088 0 0 0 255 
0.158508 -0.17236 0.0607324 -0.895175 -0.107437 0.303338 0 0 0 255 
-0.10588 0.181563 -0.00956075 0.208946 0.472159 0.836883 0 0 0 255 
-0.196838 0.356578 0.0524162 -0.262304 0.914001 -0.0922508 0 0 0 255 
0.0111366 0.0248614 0.0652405 0.00174721 -0.939169 -0.342952 0 0 0 255 
-0.162386 0.284537 0.0392472 0.960266 0.229558 0.0733561 0 0 0 255 
0.0938642 -0.039818 -0.111914 0.61944 -0.362462 0.673543 0 0 0 255 
0.169113 -0.0204544 0.128566 -0.105592 -0.865242 -0.352529 0 0 0 255 
-0.0589927 -0.0204356 0.221334 0.000975301 0.942333 0.333503 0 0 0 255 
0.127751 0.00119422 0.158912 -0.00217122 0.94354 0.331223 0 0 0 255 
0.097408 0.0519252 -0.00607715 -0.281638 -0.911736 -0.238354 0 0 0 255 
-0.0953585 -0.118558 0.205596 0.828193 -0.211692 0.485967 0 0 0 255 
-0.133571 -0.155779 -0.0177222 0.099551 -0.916147 -0.365445 0 0 0 255 
-0.135667 -0.0131125 0.106494 -0.244671 -0.882558 -0.245529 0 0 0 255 
-0.110451 -0.135299 0.171563 0.0572674 0.334223 -0.934846 0 0 0 255 
-0.0181012 -0.0460432 0.1933 -0.243433 0.0757864 -0.960649 0 0 0 255 
0.174977 -0.131906 0.0937369 -0.334437 0.32857 -0.87757 0 0 0 255 
-0.0543063 -0.0683138 0.211527 0.220192 -0.904014 0.297615 0 0 0 255 
-0.0896121 -0.0257247 0.205761 0.181439 -0.779203 -0.499224 0 0 0 255 
-0.136883 -0.194154 -0.118883 0.488749 -0.437357 0.745729 0 0 0 255 
-0.093338 0.283293 0.00416284 0.0962124 0.657116 0.70282 0 0 0 255 
-0.158067 -0.0500925 -0.078027 -0.869408 0.184998 -0.445094 0 0 0 255 
0.0744596 0.0278722 0.0576389 0.0121903 -0.941295 -0.33725 0 0 0 255 
0.101539 -0.123524 -0.0982728 -0.0606232 -0.906667 -0.321089 0 0 0 255 
-0.00989876 -0.0264548 0.197295 -0.190072 -0.244277 -0.911371 0 0 0 255 
-0.110217 -0.184083 0.155671 0.197104 0.421059 -0.854248 0 0 0 255 
-0.160006 -0.0869913 -0.086089 -0.986845 0.0181018 -0.0192965 0 0 0 255 
0.124405 0.375832 -0.0319899 0.133325 0.31909 -0.922353 0 0 0 255 
-0.103689 0.273882 0.010389 0.324754 -0.0863003 0.933897 0 0 0 255 
0.0849379 0.0581737 -0.104501 -0.148211 0.347094 -0.912715 0 0 0 255 
0.0796203 -0.138957 -0.194124 0.369623 0.419475 -0.816699 0 0 0 255 
-0.127431 -0.124481 -0.111532 0.827094 0.216319 -0.513282 0 0 0 255 
-0.0133693 -0.171614 0.143001 -0.228101 0.573651 -0.761704 0 0 0 255 
0.142364 -0.13539 -0.020857 0.47773 0.860241 0.132408 0 0 0 255 
0.164736 -0.123243 0.10731 -0.929564 0.125383 -0.334612 0 0 0 255 
0.0845266 -0.208689 -0.22361 0.816649 0.0855604 -0.51858 0 0 0 255 
0.0333971 -0.0265182 0.209034 0.109205 -0.964476 0.111439 0 0 0 255 
0.000882376 -0.0192148 0.216091 -0.00875784 0.93918 0.342465 0 0 0 255 
0.0692277 0.0315807 0.0719478 -0.0126114 0.949598 0.31294 0 0 0 255 
-0.0392618 0.0631838 -0.0105573 0.0030644 0.933004 0.359792 0 0 0 255 
-0.00533375 0.0421278 0.0428406 0.00953575 0.933336 0.358819 0 0 0 255 
-0.159722 -0.224535 -0.141898 -0.799907 -0.283014 0.498724 0 0 0 255 
-0.132253 0.0143986 0.11676 -0.0821664 0.933389 0.344763 0 0 0 255 
0.081435 0.0447508 0.0128299 -0.0264737 -0.929886 -0.366074 0 0 0 255 
-0.0431611 0.0305152 0.0745103 0.00529036 0.942608 0.33338 0 0 0 255 
0.152117 -0.16865 0.0436787 -0.902436 -0.243932 0.249401 0 0 0 255 
0.103982 0.328702 -0.0317245 -0.791836 0.145386 -0.49803 0 0 0 255 
0.0715645 -0.169856 -0.172636 -0.199204 -0.48241 0.837529 0 0 0 255 
-0.0590932 -0.012125 0.195857 0.00425025 0.94585 0.324553 0 0 0 255 
-0.125947 0.0405751 0.0210791 0.450929 -0.798359 -0.352194 0 0 0 255 
-0.0644324 0.181641 -0.0203692 0.230011 0.0894451 0.95069 0 0 0 255 
-0.126492 -0.0189658 -0.0455234 0.860818 -0.140917 0.467312 0 0 0 255 
-0.103641 -0.237091 0.145391 0.69294 0.0928582 -0.679385 0 0 0 255 
0.198719 -0.160362 0.109049 0.926193 -0.0962266 0.331955 0 0 0 255 
0.0932044 0.163827 -0.0396326 -0.50047 -0.156633 0.820576 0 0 0 255 
-0.000711919 0.0209802 0.103092 -0.000895581 0.948896 0.314729 0 0 0 255 
0.153983 0.0185757 0.0240733 0.400454 -0.800915 -0.428255 0 0 0 255 
0.0527365 0.0374594 0.0534719 -0.0133704 0.938829 0.343718 0 0 0 255 
-0.0103773 -0.0470701 0.209476 0.241261 -0.460268 0.852146 0 0 0 255 
-0.0969389 -0.140218 0.198964 0.785588 -0.223165 0.557358 0 0 0 255 
0.0665765 -0.111592 -0.144772 -0.605079 -0.32495 0.710958 0 0 0 255 
-0.116155 -0.279745 0.164224 -0.0309995 -0.236779 0.964011 0 0 0 255 
-0.112868 -0.367154 0.117702 0.37346 0.0766568 -0.893366 0 0 0 255 
0.115979 0.0328926 0.0422557 -0.22275 -0.930752 -0.245332 0 0 0 255 
-0.113312 0.0690921 -0.0296168 -0.392219 0.884245 -0.135179 0 0 0 255 
0.186904 0.00437598 0.12389 0.722685 -0.51428 -0.446788 0 0 0 255 
-0.171547 0.331276 0.0535277 0.85329 -0.132136 0.333806 0 0 0 255 
0.18808 -0.0574169 0.125165 0.364368 0.360705 -0.85316 0 0 0 255 
-0.146454 0.195768 0.00603608 0.868458 0.287767 -0.40079 0 0 0 255 
0.118003 -0.018669 0.167171 -0.172745 -0.241626 -0.899481 0 0 0 255 
-0.0929361 0.0730358 -0.0415237 -0.300683 0.826141 -0.243962 0 0 0 255 
0.0820279 -0.166299 0.13806 0.177235 0.430715 0.860405 0 0 0 255 
-0.124333 -0.0748454 0.203072 -0.871832 0.153671 -0.455377 0 0 0 255 
-0.0190659 0.187618 -0.0315145 0.184123 0.181417 0.911835 0 0 0 255 
0.0338035 -0.178683 0.15026 0.241304 -0.472063 0.77698 0 0 0 255 
-0.117916 -0.128033 0.209811 -0.358692 -0.318727 0.876119 0 0 0 255 
-0.174388 0.337298 0.0584918 0.846691 0.118109 0.458098 0 0 0 255 
-0.186876 0.251655 0.0215134 -0.760062 0.0319918 -0.615262 0 0 0 255 
0.115764 0.0340873 0.0171355 -0.912509 -0.302339 0.241831 0 0 0 255 
0.0629722 -0.0188599 0.180992 -0.270736 -0.374234 -0.798668 0 0 0 255 
-0.159522 -0.202884 -0.1312 -0.827127 -0.235026 0.490662 0 0 0 255 
-0.125652 -0.132721 -0.110544 0.949633 0.0945718 -0.258128 0 0 0 255 
-0.0965632 -0.220817 0.161562 0.976122 -0.0636455 -0.111607 0 0 0 255 
0.0599661 -0.142743 -0.191271 -0.807435 0.300773 -0.494289 0 0 0 255 
0.131152 -0.0384523 0.156832 -0.2573 0.0986234 -0.937082 0 0 0 255 
-0.168494 0.18347 -0.00554345 -0.431749 0.208945 -0.867899 0 0 0 255 
0.0825164 -0.050015 -0.111858 0.103713 -0.404163 0.894386 0 0 0 255 
-0.0854905 0.0664939 -0.0193127 -0.0617058 0.96045 0.236773 0 0 0 255 
-0.0577113 0.367486 -0.00274806 -0.198342 0.804357 -0.440158 0 0 0 255 
0.190763 0.00203747 0.131119 0.78284 -0.457918 -0.403846 0 0 0 255 
-0.0798635 0.05768 0.00424483 0.00486023 0.937604 0.347626 0 0 0 255 
-0.102856 -0.366858 0.13006 0.944017 0.0232872 -0.315866 0 0 0 255 
0.103285 0.303588 -0.0181879 -0.717809 0.0739944 0.660097 0 0 0 255 
-0.0206096 0.178531 -0.0410828 -0.0287113 -0.872754 -0.431638 0 0 0 255 
0.128658 0.0627447 -0.037327 0.751996 -0.330128 -0.568714 0 0 0 255 
0.147335 -0.152555 -0.0139966 0.641894 -0.531077 -0.46785 0 0 0 255 
-0.0373756 0.0261527 0.0618708 -0.0028964 -0.934698 -0.355415 0 0 0 255 
-0.142374 -0.245648 -0.177164 0.550788 0.271907 -0.786079 0 0 0 255 
-0.0627827 0.0341082 0.0649376 0.00665485 0.936916 0.3494 0 0 0 255 
0.050705 0.0292198 0.0780827 -0.0128095 0.952113 0.305114 0 0 0 255 
0.137206 0.0590561 -0.0245741 0.736097 -0.400829 -0.541819 0 0 0 255 
-0.18649 0.235044 0.0278062 -0.948751 -0.238595 0.183797 0 0 0 255 
0.054401 0.0373841 0.0318633 -0.00115931 -0.93337 -0.35858 0 0 0 255 
-0.108489 -0.0261219 0.157143 0.917591 -0.23147 -0.229014 0 0 0 255 
-0.0175005 -0.0243817 0.229044 0.0626926 0.743932 0.657274 0 0 0 255 
0.164905 -0.137763 0.113798 -0.930206 -0.112522 0.280579 0 0 0 255 
0.0860687 -0.0287443 -0.102521 0.137754 -0.398833 0.899173 0 0 0 255 
-0.136177 -0.186808 -0.148615 0.570925 0.314673 -0.748959 0 0 0 255 
0.121969 0.0142774 0.120954 0.000761721 0.940182 0.340587 0 0 0 255 
-0.134156 -0.217509 -0.157268 0.856425 0.131162 -0.472365 0 0 0 255 
-0.141716 0.0257152 -0.00110508 0.0201099 -0.86946 -0.132139 0 0 0 255 
-0.0317603 0.17856 -0.0399085 -0.0543897 -0.798019 -0.528006 0 0 0 255 
0.0866336 0.00183348 0.156143 -0.00418463 0.942263 0.334644 0 0 0 255 
-0.0406401 0.0517001 -0.00764323 0.000130092 -0.940605 -0.338551 0 0 0 255 
-0.0637375 -0.0789731 -0.114404 -0.19532 -0.372175 -0.894994 0 0 0 255 
0.125019 -0.156087 0.117643 -0.0201274 0.945612 0.188718 0 0 0 255 
-0.0265255 0.011447 0.130963 0.00310031 0.936497 0.350286 0 0 0 255 
0.0350876 0.0647097 -0.0427128 -0.00170838 -0.939945 -0.341308 0 0 0 255 
-0.111082 0.0304374 0.0752723 -0.0100106 0.93569 0.352415 0 0 0 255 
0.10367 0.334378 -0.0220896 -0.942338 0.0337901 0.184585 0 0 0 255 
-0.153791 0.237831 0.0306427 0.934936 0.0735023 0.257373 0 0 0 255 
0.150552 0.00237195 0.155869 -0.00463557 0.94505 0.326859 0 0 0 255 
-0.0856236 0.0503312 0.0242324 0.0112357 0.928946 0.369628 0 0 0 255 
-0.128295 -0.153662 -0.0175349 0.559023 -0.742391 -0.346827 0 0 0 255 
0.0836839 -0.124844 -0.184656 0.547266 0.362764 -0.745918 0 0 0 255 
-0.038351 0.0358649 0.0368923 -0.0105057 -0.918875 -0.393553 0 0 0 255 
0.133249 0.320005 -0.0157864 0.9196 -0.158613 0.339528 0 0 0 255 
-0.0471942 -0.00501845 0.173958 0.00479399 0.943834 0.330384 0 0 0 255 
0.0626316 -0.158694 -0.171675 -0.703247 -0.331168 0.609548 0 0 0 255 
-0.168212 0.347219 0.0409264 -0.0863788 0.967393 0.167481 0 0 0 255 
-0.0540618 0.0627044 -0.00901125 0.00310195 0.93425 0.356576 0 0 0 255 
0.0269528 0.0796721 -0.0530615 0.000740517 0.94503 0.320542 0 0 0 255 
0.0931198 0.352812 -0.0168668 -0.194485 -0.878123 0.297347 0 0 0 255 
-0.149005 -0.127185 -0.0568997 -0.859722 0.350664 0.210564 0 0 0 255 
-0.0703902 -0.173597 0.165491 0.0338146 0.952574 0.191387 0 0 0 255 
-0.096593 0.0154329 0.117796 -0.0165235 0.947883 0.317697 0 0 0 255 
0.172502 0.022402 0.094838 0.36479 0.915207 0.14951 0 0 0 255 
-0.103299 0.0543195 0.0140243 -0.00345568 0.941535 0.332851 0 0 0 255 
-0.0651333 0.0585151 0.00172104 -0.00659498 0.940174 0.330752 0 0 0 255 
-0.158562 -0.0960412 -0.097404 -0.885905 0.188761 -0.385593 0 0 0 255 
-0.0393481 0.00939647 0.108589 0.00165916 -0.942775 -0.333253 0 0 0 255 
-0.0780853 0.0335553 0.0434181 -0.00613645 -0.922504 -0.385247 0 0 0 255 
0.165923 0.00924674 0.136071 0.00468028 0.94741 0.319501 0 0 0 255 
-0.154962 0.0132589 0.0351836 -0.361149 -0.829596 -0.281095 0 0 0 255 
-0.0733929 -0.0383348 0.212805 -0.223399 0.37931 -0.896289 0 0 0 255 
0.165079 0.020441 0.103498 0.0324404 0.950264 0.309515 0 0 0 255 
-0.148637 -0.136824 -0.0467792 -0.958624 -0.199195 0.038507 0 0 0 255 
-0.0971172 -0.128517 0.204258 0.747201 -0.249131 0.613193 0 0 0 255 
-0.137869 -0.0129713 0.184407 -0.826136 0.459197 0.239542 0 0 0 255 
-0.131812 -0.320241 0.139851 -0.979662 -0.0347859 -0.0143201 0 0 0 255 
0.0892328 -0.106636 -0.101446 -0.800675 0.320978 0.489305 0 0 0 255 
-0.100918 -0.166037 0.193105 0.582909 -0.252717 0.746267 0 0 0 255 
-0.0666816 0.0136662 0.096547 -0.00829022 -0.934014 -0.356504 0 0 0 255 
0.171991 -0.281498 0.0699013 -0.975424 -0.133233 0.131092 0 0 0 255 
-0.160533 -0.205295 -0.152958 -0.844415 0.241618 -0.462477 0 0 0 255 
-0.0571478 0.0516354 0.0198482 0.0124221 0.929368 0.368823 0 0 0 255 
0.165957 -0.162013 0.0594245 -0.0642488 0.913546 0.214701 0 0 0 255 
-0.102313 -0.00299395 0.170521 0.00285264 0.944737 0.327741 0 0 0 255 
0.109009 0.100377 -0.0629892 0.894158 -0.191242 0.375653 0 0 0 255 
0.0272861 -0.0266763 0.18944 -0.159664 0.0159939 -0.915079 0 0 0 255 
0.0576929 -0.0749877 -0.126324 -0.0654698 -0.65749 0.68912 0 0 0 255 
0.0174388 -0.184507 0.14878 0.146383 -0.963604 0.191852 0 0 0 255 
0.0939453 0.264213 -0.0373781 -0.971165 0.0373056 -0.0961587 0 0 0 255 
0.0967414 -0.0358268 -0.112942 0.812871 -0.283248 0.497434 0 0 0 255 
0.141658 -0.156615 0.0167065 -0.863614 0.0279804 0.357197 0 0 0 255 
0.0206166 -0.0344156 0.205767 0.23796 -0.414814 0.876917 0 0 0 255 
0.189601 -0.35285 0.0592301 -0.121001 -0.612482 0.699722 0 0 0 255 
0.0842197 0.0367124 -0.112996 -0.0682165 0.364573 -0.925273 0 0 0 255 
-0.0990757 -0.111524 0.212761 0.617225 -0.29 0.708148 0 0 0 255 
0.128329 0.337425 -0.0323371 0.587939 0.0226093 -0.784906 0 0 0 255 
0.0504014 0.0670129 -0.0489015 -0.00456258 -0.932977 -0.352356 0 0 0 255 
0.116548 0.0651548 -0.015749 0.00689719 0.912445 0.404101 0 0 0 255 
0.163947 -0.051435 0.155821 -0.375279 -0.733365 0.274806 0 0 0 255 
-0.147961 0.0162744 0.106461 -0.417951 0.772972 0.384169 0 0 0 255 
0.0963112 -0.0431083 0.183299 0.223776 -0.450988 0.822778 0 0 0 255 
-0.0162258 0.0368146 0.0564813 0.00906566 0.934348 0.355886 0 0 0 255 
-0.0607711 0.00678281 0.115672 0.0063768 -0.94434 -0.328844 0 0 0 255 
0.174132 -0.156061 0.118984 -0.390673 -0.226979 0.886783 0 0 0 255 
-0.0974064 -0.0959975 0.218309 0.667914 -0.282334 0.683061 0 0 0 255 
0.172475 -0.172214 0.0431501 0.778509 -0.397819 -0.45914 0 0 0 255 
-0.174627 0.160555 -0.00215181 -0.973485 -0.0519543 -0.210752 0 0 0 255 
-0.0207527 -0.0670445 -0.123706 -0.213471 0.519279 -0.755229 0 0 0 255 
0.0202228 -0.0544567 0.195968 0.201232 -0.885749 0.180513 0 0 0 255 
0.107041 0.000861309 0.159633 -0.00105363 0.941914 0.335786 0 0 0 255 
0.0482994 0.297559 -0.0272795 0.0280423 0.913184 0.258756 0 0 0 255 
0.0964647 -0.0633378 -0.137193 0.98402 -0.0300327 -0.0859059 0 0 0 255 
0.0751852 -0.00500251 0.145812 0.00667911 -0.944707 -0.327721 0 0 0 255 
-0.146911 0.000878989 -0.0307954 -0.255421 -0.312844 0.902745 0 0 0 255 
-0.148426 0.204743 0.0223888 0.89031 0.0519035 0.417572 0 0 0 255 
0.0595595 -0.126701 -0.161018 -0.917329 -0.146345 0.357731 0 0 0 255 
0.130317 -0.163669 0.105947 -0.239763 -0.075702 -0.931539 0 0 0 255 
-0.105204 -0.135361 0.206968 0.319085 -0.336758 0.876423 0 0 0 255 
-0.138575 -0.0093062 0.145334 -0.871145 -0.47314 0.0216405 0 0 0 255 
-0.159371 -0.14673 -0.104914 -0.888841 -0.178879 0.412203 0 0 0 255 
-0.108908 -0.0261829 0.235794 -0.124611 0.799446 0.5588 0 0 0 255 
-0.100462 -0.291726 0.143385 0.943878 0.0210053 -0.274848 0 0 0 255 
0.0854411 -0.010563 0.193258 -0.00119586 0.944454 0.32862 0 0 0 255 
-0.152432 0.167738 -0.0119227 -0.0291466 0.312225 -0.948867 0 0 0 255 
-0.140356 0.0392906 0.0514462 -0.0685735 0.91175 0.393872 0 0 0 255 
-0.114435 -0.231363 0.141004 0.13774 0.0752417 -0.903277 0 0 0 255 
-0.105951 0.359212 0.00814988 -0.33204 0.540013 -0.753995 0 0 0 255 
0.103428 -0.120889 -0.103223 0.29794 -0.811005 -0.44819 0 0 0 255 
-0.190794 0.355929 0.0496661 0.0298681 0.864339 -0.311721 0 0 0 255 
0.190989 -0.348846 0.0387987 -0.157292 -0.301164 -0.84537 0 0 0 255 
0.0389951 -0.00794845 0.183175 -0.00990228 0.948022 0.317823 0 0 0 255 
0.184089 -0.324907 0.0672191 -0.346958 -0.300705 0.868962 0 0 0 255 
0.0485324 -0.163117 0.128907 -0.236766 0.736351 -0.553214 0 0 0 255 
-0.184469 0.293928 0.0577201 -0.165348 -0.271716 0.941844 0 0 0 255 
-0.152935 0.262664 0.0297706 0.657612 -0.0372942 0.689716 0 0 0 255 
0.087274 0.362464 -0.0130318 0.0400864 0.148195 0.97188 0 0 0 255 
0.0160475 0.297457 -0.0241072 0.00591992 0.933862 0.227853 0 0 0 255 
0.116158 0.293127 -0.0428515 0.269579 0.133264 -0.941797 0 0 0 255 
0.188183 -0.0742833 0.117702 0.359889 0.3631 -0.847261 0 0 0 255 
-0.129514 0.020367 0.101747 -0.0550727 0.926897 0.369902 0 0 0 255 
-0.0644984 0.0727352 -0.0589732 -0.31356 -0.270974 -0.886382 0 0 0 255 
-0.171114 0.134763 -0.00182445 -0.911419 -0.197626 0.349576 0 0 0 255 
0.0568647 -0.182435 -0.198236 -0.980248 -0.0850837 0.136657 0 0 0 255 
-0.00398555 -0.167831 0.146838 -0.116613 0.962832 -0.120035 0 0 0 255 
-0.125526 -0.124089 0.204014 -0.871856 -0.141775 0.460508 0 0 0 255 
0.176374 -0.0576083 0.16003 -0.262437 -0.379505 0.885215 0 0 0 255 
-0.127501 -0.177281 -0.121857 0.961667 -0.165052 0.164108 0 0 0 255 
-0.119148 -0.102338 0.185881 -0.481279 0.317904 -0.801993 0 0 0 255 
0.0419659 0.0300911 0.0750981 -0.010998 0.950675 0.309558 0 0 0 255 
-0.122853 -0.214906 0.146193 -0.735174 -0.380387 -0.522975 0 0 0 255 
-0.121699 -0.118705 0.181667 -0.60278 0.271784 -0.718579 0 0 0 255 
-0.126666 -0.154704 -0.122681 0.927424 0.122358 -0.349404 0 0 0 255 
-0.106906 -0.01853 0.168646 0.918361 -0.30971 -0.22953 0 0 0 255 
-0.129246 -0.363763 0.129167 -0.947466 -0.065399 -0.238863 0 0 0 255 
-0.160439 -0.00154958 -0.0543247 -0.961267 0.0417414 -0.221154 0 0 0 255 
-0.126452 -0.372182 0.138562 -0.721753 -0.236086 0.619246 0 0 0 255 
0.015498 0.00371436 0.124134 -0.0123068 -0.928203 -0.370515 0 0 0 255 
0.11261 0.0670061 -0.019193 -0.0428296 0.905894 0.420482 0 0 0 255 
-0.00478217 0.0700458 -0.057131 -0.0156089 -0.914844 -0.401134 0 0 0 255 
0.0259566 0.0438769 0.0373622 0.00705851 0.929218 0.369324 0 0 0 255 
0.114132 0.0357018 0.0129618 -0.907465 -0.305813 0.233204 0 0 0 255 
0.0510124 -0.17654 0.14671 0.249445 -0.391728 0.871754 0 0 0 255 
0.101798 0.193049 -0.0639852 0.0686638 0.227315 -0.962403 0 0 0 255 
-0.0933475 0.363119 0.0150674 0.00769879 0.863739 0.466074 0 0 0 255 
-0.17047 0.25289 0.0466832 0.150097 -0.229155 0.953868 0 0 0 255 
-0.127797 -0.141369 0.181814 -0.949932 0.12308 -0.269133 0 0 0 255 
0.00564439 0.0588279 0.000616193 0.00450264 0.931556 0.36351 0 0 0 255 
-0.010833 0.368344 -0.0167268 -0.178998 0.4596 -0.858442 0 0 0 255 
-0.0156102 0.0470473 0.00517756 0.0220376 -0.957211 -0.279918 0 0 0 255 
-0.103237 0.0445697 0.0393444 0.0139212 0.922113 0.386594 0 0 0 255 
-0.136026 -0.144013 -0.04774 0.168485 -0.901691 -0.376592 0 0 0 255 
0.184043 -0.318238 0.0462159 -0.444326 0.175404 -0.861024 0 0 0 255 
0.0934189 -0.0229539 0.201242 0.129184 -0.976265 0.125433 0 0 0 255 
-0.127216 -0.291025 0.158406 -0.577555 -0.181771 0.77459 0 0 0 255 
0.0884769 -0.0755236 -0.158279 0.611799 0.306687 -0.720563 0 0 0 255 
0.132308 0.0138392 0.0583894 -0.846606 -0.492291 0.141545 0 0 0 255 
-0.0323862 0.0805707 -0.0671205 -0.194877 0.666839 -0.684267 0 0 0 255 
-0.103917 -0.170465 0.162411 0.330257 0.330238 -0.87588 0 0 0 255 
-0.131236 -0.0229681 0.13491 -0.231317 -0.884721 -0.224398 0 0 0 255 
-0.162896 -0.210367 -0.147089 -0.989411 0.0518166 -0.057106 0 0 0 255 
0.132535 0.0317617 -0.0118967 0.196685 -0.844915 -0.401712 0 0 0 255 
-0.199326 0.299242 0.0451825 -0.960515 -0.222132 0.134645 0 0 0 255 
0.145975 0.0247898 0.0915999 0.0200672 0.942747 0.332077 0 0 0 255 
-0.108382 0.0593886 -0.027705 -0.184695 -0.792302 -0.510553 0 0 0 255 
-0.0168923 -0.00964488 0.157797 -0.023629 -0.921595 -0.385283 0 0 0 255 
-0.126409 -0.0680236 0.211282 -0.964301 0.102251 -0.218471 0 0 0 255 
-0.156688 0.225947 0.00988884 0.573233 0.310733 -0.736841 0 0 0 255 
-0.0606395 -0.0844604 -0.0959779 0.221559 -0.770168 0.589372 0 0 0 255 
0.194346 -0.0689447 0.150974 0.687643 -0.281512 0.657371 0 0 0 255 
-0.0660232 0.037185 0.0569191 0.0106096 0.933891 0.357137 0 0 0 255 
-0.0146217 -0.0051248 0.146289 -0.0272207 -0.915398 -0.401531 0 0 0 255 
0.0592137 -0.200892 -0.201853 -0.849144 -0.313844 0.397085 0 0 0 255 
-0.149632 0.210841 0.0246822 0.889587 0.0483696 0.420507 0 0 0 255 
0.170791 0.00800574 0.139914 0.0124271 0.948423 0.314832 0 0 0 255 
-0.129188 -0.192357 0.119499 -0.805942 0.485563 0.254657 0 0 0 255 
-0.0289652 0.0521978 0.0173231 0.00600107 0.934102 0.356906 0 0 0 255 
0.141384 -0.049595 0.159732 -0.155609 -0.89944 -0.342164 0 0 0 255 
-0.0594179 0.0230114 0.0705667 -0.00455513 -0.937137 -0.348746 0 0 0 255 
0.139417 0.0574342 -0.0187299 0.71568 -0.419003 -0.553404 0 0 0 255 
-0.0741199 0.0581397 0.00283998 0.0045571 0.937309 0.347905 0 0 0 255 
0.0613498 -0.129428 -0.185129 -0.747294 0.33459 -0.531328 0 0 0 255 
0.182573 -0.149951 0.123517 -0.00288619 -0.323981 0.927419 0 0 0 255 
-0.125925 -0.243084 0.142084 -0.614731 0.184283 -0.749076 0 0 0 255 
0.119899 0.374501 -0.0322235 -0.087738 0.274761 -0.93457 0 0 0 255 
-0.173448 0.275203 0.0526657 0.222621 -0.198968 0.951341 0 0 0 255 
0.0937715 -0.00272738 0.139789 0.00742269 -0.939404 -0.342249 0 0 0 255 
0.0725752 -0.105684 -0.177713 -0.121914 0.479349 -0.861711 0 0 0 255 
0.0771931 0.103235 -0.0751663 -0.96491 0.113953 -0.030399 0 0 0 255 
0.0144404 0.00767457 0.139416 0.0108498 0.931615 0.363256 0 0 0 255 
-0.144293 0.264172 0.0112042 -0.147889 -0.565965 -0.783296 0 0 0 255 
-0.162021 -0.220588 -0.157992 -0.915987 0.181675 -0.338606 0 0 0 255 
-0.153956 0.250713 0.0283434 0.866207 -0.272259 0.0728454 0 0 0 255 
0.145682 0.0160997 0.0307394 0.188367 -0.861863 -0.372899 0 0 0 255 
0.126083 0.341816 -0.0338075 0.469815 0.043889 -0.861632 0 0 0 255 
-0.160344 0.034294 0.0126109 -0.974976 -0.11916 -0.150501 0 0 0 255 
-0.011799 0.025895 0.0872211 0.000744415 0.950844 0.30957 0 0 0 255 
-0.142033 -0.142261 -0.130042 0.131953 0.433509 -0.881169 0 0 0 255 
-0.0620386 0.190449 -0.0352836 -0.205602 0.764101 -0.567002 0 0 0 255 
0.141493 0.00825385 0.11074 -0.18616 -0.938184 -0.279308 0 0 0 255 
0.103987 0.0383469 -0.0985811 0.947818 0.0326807 -0.297352 0 0 0 255 
0.107085 0.337788 -0.0149557 -0.81609 -0.0152368 0.549298 0 0 0 255 
-0.0622354 -0.0810299 -0.0927598 0.254123 -0.265212 0.91005 0 0 0 255 
0.178381 -0.0907077 0.146227 -0.206905 -0.378739 0.890842 0 0 0 255 
0.176509 0.0190297 0.103914 0.362847 0.893292 0.127129 0 0 0 255 
0.131934 0.00595499 0.144803 -0.00205624 0.943039 0.332648 0 0 0 255 
0.0930369 0.277104 -0.0259413 -0.467901 -0.639377 0.451583 0 0 0 255 
0.01728 0.183612 -0.036562 0.111902 -0.345052 0.922929 0 0 0 255 
0.133518 0.371996 -0.0284218 0.619769 0.227593 -0.710172 0 0 0 255 
-0.172931 0.14574 -0.00107921 -0.948227 -0.178283 0.220403 0 0 0 255 
-0.104356 -0.0868962 -0.101543 -0.0995522 -0.717626 -0.685745 0 0 0 255 
-0.0739123 0.05286 -0.0108534 0.000113595 -0.936438 -0.350783 0 0 0 255 
-0.176131 0.17367 0.00759741 -0.940064 -0.215278 0.245355 0 0 0 255 
0.0334738 -0.164096 0.139487 -0.0873101 0.982513 0.0758498 0 0 0 255 
0.140889 0.0164423 0.11476 0.00491615 0.942665 0.333467 0 0 0 255 
0.131767 0.059202 -0.0300252 0.737466 -0.355032 -0.574294 0 0 0 255 
-0.103577 -0.344156 0.139923 0.848163 -0.109065 0.314579 0 0 0 255 
0.03242 0.0826005 -0.0615662 0.00478937 0.977189 0.203424 0 0 0 255 
0.0164948 -0.0281325 0.213729 0.15627 -0.939767 0.297569 0 0 0 255 
-0.126318 -0.007091 -0.0575627 0.91586 0.167524 -0.340394 0 0 0 255 
-0.161412 -0.156572 -0.121379 -0.982539 0.0745524 -0.101546 0 0 0 255 
0.169738 0.00816493 0.0735679 0.852371 -0.317193 -0.36157 0 0 0 255 
0.0138448 0.017674 0.112714 0.000575128 0.942682 0.332298 0 0 0 255 
-0.0939389 0.00246666 0.153902 -0.000374609 0.942205 0.335017 0 0 0 255 
-0.0206864 0.0282445 0.0803434 0.00416234 0.946746 0.321557 0 0 0 255 
0.115822 0.24997 -0.0492913 0.482835 0.11924 -0.858104 0 0 0 255 
0.0893957 0.0280204 0.0581936 0.0111335 -0.941643 -0.336382 0 0 0 255 
0.153227 -0.0011192 0.126683 -0.57384 -0.766693 0.0864494 0 0 0 255 
0.0471875 0.365837 -0.0262425 -0.106869 0.0307265 -0.969608 0 0 0 255 
-0.106824 0.354679 0.0233873 0.238961 0.260141 0.880132 0 0 0 255 
0.12669 -0.0424486 0.17532 0.24289 -0.363041 0.899488 0 0 0 255 
-0.129516 -0.33059 0.145353 -0.811836 -0.151146 0.520754 0 0 0 255 
0.142217 0.0628889 -0.0196893 0.741296 0.401768 -0.147947 0 0 0 255 
0.0669016 0.371283 -0.0231365 0.0232016 0.845343 -0.430887 0 0 0 255 
-0.159384 -0.0893942 -0.0919037 -0.944101 0.125785 -0.25775 0 0 0 255 
-0.160073 0.27475 0.0365659 0.925223 0.267719 0.105823 0 0 0 255 
-0.0973352 0.0378838 0.0305379 0.0419622 -0.956544 -0.287654 0 0 0 255 
-0.168099 0.100967 -0.0211253 -0.943805 0.000547439 -0.300809 0 0 0 255 
0.0464947 -0.17517 0.14798 0.243987 -0.191203 0.90718 0 0 0 255 
0.168851 -0.0575478 0.155364 -0.585981 -0.431008 0.650575 0 0 0 255 
-0.128195 -0.0253021 -0.0686677 0.751396 0.241903 -0.588427 0 0 0 255 
-0.108206 -0.353066 0.125243 0.729977 0.0576524 -0.617137 0 0 0 255 
-0.153356 -0.133398 -0.12313 -0.521522 0.380193 -0.753667 0 0 0 255 
0.11964 0.0416363 0.0436653 0.0110125 0.943177 0.33173 0 0 0 255 
-0.147018 0.106848 0.00227678 0.190697 -0.253039 0.924241 0 0 0 255 
0.0134007 0.294982 -0.0318932 -0.113495 0.580167 -0.733919 0 0 0 255 
0.116283 0.210011 -0.0293633 0.60163 -0.226869 0.749292 0 0 0 255 
0.0668966 0.297312 -0.0297615 0.0449278 0.945125 0.0607769 0 0 0 255 
0.0957364 0.276242 -0.0397738 -0.658483 0.0314664 -0.6861 0 0 0 255 
0.141528 0.00246328 0.0835632 -0.785663 -0.564765 0.111563 0 0 0 255 
-0.0362369 0.367565 0.00140633 0.111894 0.622967 0.723281 0 0 0 255 
-0.0898996 0.362934 0.00483525 -0.275916 0.715064 -0.563223 0 0 0 255 
0.115898 0.0156414 0.0918483 -0.0165942 -0.931613 -0.362289 0 0 0 255 
-0.160162 -0.0231635 -0.0603315 -0.989492 0.0187435 -0.101435 0 0 0 255 
-0.105431 -0.0208491 0.222362 -0.0820855 0.903725 0.387735 0 0 0 255 
0.113307 -0.0389574 0.161412 -0.286585 0.0835958 -0.943534 0 0 0 255 
0.192472 -0.191999 0.0765355 0.531871 0.24666 -0.799419 0 0 0 255 
-0.0118499 -0.0664095 -0.126899 -0.231417 0.514763 -0.785637 0 0 0 255 
-0.102123 -0.301265 0.138127 0.874188 0.0497313 -0.474416 0 0 0 255 
-0.0682115 0.0735426 -0.0377067 -0.0730889 0.964189 0.224349 0 0 0 255 
0.0160998 -0.017453 0.212272 -0.00935008 0.934953 0.353439 0 0 0 255 
0.0531224 -0.0162355 0.178165 -0.0676595 -0.87212 -0.460496 0 0 0 255 
-0.0791388 0.0333325 0.0676623 0.00797085 0.936186 0.351048 0 0 0 255 
0.0914473 0.230327 -0.0380962 -0.942991 0.0566095 0.253341 0 0 0 255 
-0.159885 0.0319995 0.00752023 -0.924973 -0.23542 -0.173111 0 0 0 255 
-0.154377 0.0501352 -0.046854 -0.342554 0.281515 -0.890663 0 0 0 255 
0.0601249 -0.0838815 -0.149521 -0.939953 -0.0862736 -0.16331 0 0 0 255 
-0.104485 -0.00490487 0.175754 -0.0045535 0.944665 0.32768 0 0 0 255 
0.0701873 -0.0117743 0.196577 -0.00241159 0.943959 0.329969 0 0 0 255 
-0.0733664 0.274032 -0.00664836 0.0711491 -0.928222 -0.222911 0 0 0 255 
-0.0403844 -0.0204283 0.190759 -0.0155271 -0.939077 -0.343125 0 0 0 255 
0.191158 -0.0915955 0.143748 0.482408 -0.333977 0.800706 0 0 0 255 
0.0985901 0.166415 -0.070531 0.040537 0.249818 -0.936356 0 0 0 255 
0.154712 -0.152425 -0.00287637 0.873102 -0.176285 -0.42923 0 0 0 255 
-0.143577 0.106407 -0.0289198 0.397138 0.306218 -0.856063 0 0 0 255 
-0.015132 0.00436719 0.14829 0.006909 0.933147 0.359409 0 0 0 255 
-0.130036 -0.14827 0.014385 0.058544 0.936279 0.336541 0 0 0 255 
0.118179 -0.116682 -0.0845894 0.91521 0.204998 -0.33921 0 0 0 255 
0.0634492 0.296975 -0.0263837 0.0551934 0.824527 0.513037 0 0 0 255 
-0.128353 -0.165074 0.0579381 -0.157125 0.904166 0.357768 0 0 0 255 
0.096027 0.0351627 0.0623031 -0.00821709 0.945896 0.324246 0 0 0 255 
0.116008 0.292941 -0.0115943 -0.0214938 -0.14245 0.964992 0 0 0 255 
0.0941012 0.208791 -0.0581155 -0.476537 0.238097 -0.842242 0 0 0 255 
0.0836664 0.0107728 0.130078 -0.000546856 0.9378 0.347144 0 0 0 255 
0.0718602 -0.149326 -0.16099 -0.195564 -0.460277 0.851078 0 0 0 255 
-0.0483288 -0.0137948 0.200905 0.00322361 0.945669 0.325075 0 0 0 255 
0.115722 0.364071 -0.0324231 -0.166408 0.202003 -0.935541 0 0 0 255 
0.0982757 -0.00535388 0.177848 -0.00215519 0.94345 0.331422 0 0 0 255 
-0.115929 -0.0388953 0.241114 -0.39802 0.110466 0.855886 0 0 0 255 
0.0580959 -0.0102098 0.160837 0.0014746 -0.941378 -0.336984 0 0 0 255 
0.0807511 0.06401 -0.0406439 -0.0721842 -0.94707 -0.298789 0 0 0 255 
0.131718 -0.152536 -0.0165229 -0.665651 -0.735166 0.0117076 0 0 0 255 
0.198632 -0.0451323 0.143369 0.942944 0.114512 -0.231832 0 0 0 255 
-0.0164282 -0.179605 0.163009 0.205277 0.045805 0.936383 0 0 0 255 
0.00543274 0.0448451 0.0153067 0.00457373 -0.946088 -0.316652 0 0 0 255 
0.102086 0.00413209 -0.106764 0.980257 -0.0494471 -0.0715969 0 0 0 255 
-0.0975319 0.280485 0.00712181 0.184916 0.475253 0.847727 0 0 0 255 
0.0778585 0.10785 -0.07183 -0.96489 0.081147 0.0613754 0 0 0 255 
0.0610994 -0.115826 -0.153255 -0.862955 -0.180384 0.451461 0 0 0 255 
0.0172286 0.179728 -0.0404858 0.0749753 -0.902462 0.320523 0 0 0 255 
-0.0316491 -0.000835371 0.137586 -0.0268601 -0.915097 -0.397469 0 0 0 255 
0.0260289 -0.021275 0.191906 -0.0951298 -0.415821 -0.886897 0 0 0 255 
0.17211 -0.130678 0.127162 -0.556032 -0.30203 0.768833 0 0 0 255 
-0.135411 -0.1778 0.05081 -0.69636 -0.656642 -0.159379 0 0 0 255 
-0.12123 -0.0152613 0.204299 -0.173224 0.89036 0.389733 0 0 0 255 
-0.0357071 0.187176 -0.0442697 -0.208826 0.0222382 -0.974144 0 0 0 255 
0.0316762 -0.0069843 0.150783 0.00157736 -0.936044 -0.351014 0 0 0 255 
-0.135744 -0.0150416 0.193776 -0.742612 0.564709 0.326306 0 0 0 255 
0.168219 -0.054045 0.158442 -0.327476 -0.576284 0.705292 0 0 0 255 
-0.00820915 0.181188 -0.0458308 -0.0838867 -0.702917 -0.669458 0 0 0 255 
0.141387 0.000527579 0.132308 -0.209031 -0.937966 -0.24336 0 0 0 255 
0.00783257 0.0627228 -0.0371227 -0.00818369 -0.920743 -0.387085 0 0 0 255 
0.0226649 -0.0651864 -0.136661 -0.239893 0.340591 -0.868556 0 0 0 255 
0.103947 0.355147 -0.0137271 -0.271355 -0.207817 0.890471 0 0 0 255 
0.0544123 -0.0482166 0.192113 0.208847 -0.696664 0.589373 0 0 0 255 
-0.100176 -0.0336097 0.20775 0.75764 -0.465196 -0.416596 0 0 0 255 
-0.0638598 0.0223025 0.0725463 -0.00513138 -0.937276 -0.348415 0 0 0 255 
-0.100003 -0.0857706 -0.103275 -0.0994099 -0.618112 -0.750408 0 0 0 255 
0.0628753 0.185968 -0.0410198 0.0303228 -0.0698631 0.975138 0 0 0 255 
-0.0695859 -0.0524041 0.205491 -0.220373 0.326425 -0.914767 0 0 0 255 
0.141487 0.0509417 0.0170547 0.134979 0.932797 0.32771 0 0 0 255 
0.00609652 0.0716957 -0.0616057 -0.0182875 -0.904663 -0.42447 0 0 0 255 
0.0616313 0.0315994 0.0472341 0.00549911 -0.937106 -0.348967 0 0 0 255 
-0.0920179 -0.0977498 0.206055 0.978669 -0.113042 -0.0511212 0 0 0 255 
-0.117421 -0.158694 0.19887 -0.25769 -0.316958 0.909635 0 0 0 255 
0.164934 0.0246254 0.0574133 0.924261 0.134151 -0.194287 0 0 0 255 
-0.158706 -0.0666775 -0.0834856 -0.913926 0.152103 -0.342937 0 0 0 255 
0.191625 -0.343809 0.0379858 -0.132694 -0.106068 -0.970946 0 0 0 255 
-0.119231 -0.194345 0.139953 -0.32274 0.915625 0.116563 0 0 0 255 
0.0891833 0.0504319 -0.107892 0.103254 0.332905 -0.932342 0 0 0 255 
-0.163148 0.0455674 -0.0293563 -0.926247 -0.174068 0.324232 0 0 0 255 
0.0399077 -0.0601604 -0.138528 -0.201058 0.766924 -0.594694 0 0 0 255 
-0.156989 0.261677 0.0154232 -0.101916 -0.291714 -0.898863 0 0 0 255 
-0.0142979 0.0640643 -0.0128153 0.000856233 0.932852 0.360238 0 0 0 255 
-0.0435441 0.0138377 0.123961 -0.00316968 0.941001 0.337856 0 0 0 255 
-0.095664 -0.202464 0.168438 0.956524 -0.181873 -0.0805447 0 0 0 255 
-0.0632531 -0.18392 0.154024 -0.182315 -0.292857 -0.924114 0 0 0 255 
0.0312184 0.0503511 0.0211134 0.00675526 0.928524 0.371178 0 0 0 255 
0.150436 -0.164099 0.0401771 -0.902305 0.14308 0.340995 0 0 0 255 
-0.0883128 0.0162604 0.0890413 0.00340739 -0.939523 -0.342343 0 0 0 255 
0.180171 -0.34338 0.0557936 -0.8279 -0.453858 0.206581 0 0 0 255 
0.193708 -0.113095 0.133069 0.611246 -0.283153 0.731727 0 0 0 255 
-0.111562 -0.0880424 -0.0812416 0.451947 -0.457875 0.709659 0 0 0 255 
0.19958 -0.310694 0.049811 0.553133 0.222292 -0.783727 0 0 0 255 
-0.156208 0.245121 0.0362722 0.879319 0.00941056 0.460048 0 0 0 255 
0.113455 0.379466 -0.0107992 -0.610189 0.537039 0.482147 0 0 0 255 
-0.0484103 0.0300561 0.0518772 -0.00625837 -0.929413 -0.368201 0 0 0 255 
0.19359 -0.296403 0.0769979 0.241574 -0.310898 0.918133 0 0 0 255 
-0.127472 -0.117385 0.197391 -0.980919 0.0178591 0.0257293 0 0 0 255 
-0.132078 -0.211268 -0.137569 0.904369 -0.263487 0.288597 0 0 0 255 
-0.13679 -0.12535 -0.0491274 0.180323 0.893246 0.33372 0 0 0 255 
-0.127368 -0.236376 0.169632 -0.70024 -0.159616 0.671323 0 0 0 255 
-0.158406 0.0277572 -0.0511007 -0.708369 0.187611 -0.66134 0 0 0 255 
-0.0881735 -0.175704 0.161304 0.0412515 0.531603 -0.760567 0 0 0 255 
0.0040033 -0.0780879 -0.127813 -0.10899 -0.73024 -0.637379 0 0 0 255 
-0.140066 0.028002 -0.00778211 0.116257 -0.845765 -0.141447 0 0 0 255 
-0.0337815 0.360905 0.00341605 0.217946 -0.0113451 0.946087 0 0 0 255 
-0.150647 0.12985 0.00926686 0.137193 -0.266959 0.942696 0 0 0 255 
-0.0683892 0.0775259 -0.0529677 -0.248642 0.890937 -0.258453 0 0 0 255 
0.122792 -0.134231 -0.0303753 -0.659543 0.454075 0.478323 0 0 0 255 
-0.024011 0.0011784 0.156284 0.00545294 0.934793 0.355046 0 0 0 255 
-0.0963936 -0.216724 0.165383 0.975126 -0.113979 0.0114835 0 0 0 255 
-0.189027 0.304471 0.0596249 -0.285266 -0.276386 0.906562 0 0 0 255 
0.101655 -0.15791 0.124027 -0.0393533 0.972377 0.146329 0 0 0 255 
0.0673769 0.0665282 -0.0474265 -0.0178071 -0.941763 -0.334695 0 0 0 255 
-0.115583 -0.0581563 0.202958 -0.329272 0.244307 -0.889098 0 0 0 255 
0.19827 -0.0861126 0.123183 0.923353 0.148407 -0.336127 0 0 0 255 
0.0433505 -0.0220747 0.220697 0.141847 0.553094 0.817361 0 0 0 255 
0.1685 -0.224805 0.0754173 -0.865199 0.0428574 -0.463422 0 0 0 255 
-0.0116206 0.0117492 0.130004 0.0057719 0.93537 0.3531 0 0 0 255 
-0.115865 -0.0278305 0.147547 0.230613 -0.867665 -0.344768 0 0 0 255 
0.0291012 0.18542 -0.0382071 0.103157 -0.148732 0.949287 0 0 0 255 
-0.105851 -0.0406903 0.186068 0.60803 -0.683941 -0.283723 0 0 0 255 
0.156139 -0.172242 0.0303777 -0.225097 -0.896714 -0.246852 0 0 0 255 
-0.0580343 0.0412061 0.0464268 0.00221243 0.931867 0.362637 0 0 0 255 
-0.161923 0.0178246 0.032463 -0.914904 -0.327906 -0.142657 0 0 0 255 
-0.0773954 -0.0715372 0.214362 0.418174 -0.835244 0.023747 0 0 0 255 
-0.13911 0.262798 0.0227856 0.450588 -0.505993 0.679879 0 0 0 255 
0.0740269 0.0792661 -0.0731074 -0.79221 0.252904 -0.182341 0 0 0 255 
-0.113407 0.0265419 0.0608673 0.13718 -0.911763 -0.364559 0 0 0 255 
0.107213 -0.0426093 0.180532 0.238383 -0.398812 0.871817 0 0 0 255 
0.0904707 0.358199 -0.0133695 -0.00649744 -0.245535 0.893026 0 0 0 255 
0.035224 0.0800401 -0.0537481 0.00357808 0.946808 0.314471 0 0 0 255 
0.166333 -0.16908 0.0824936 -0.934336 0.192443 -0.0334895 0 0 0 255 
-0.157341 -0.032217 -0.0521811 -0.838934 -0.206275 0.489479 0 0 0 255 
-0.152918 0.154431 -0.0159184 0.0216779 0.298895 -0.949524 0 0 0 255 
0.199391 -0.296092 0.0747937 0.497756 -0.24276 0.817127 0 0 0 255 
0.129364 -0.157139 0.119925 0.0398494 0.867594 0.419255 0 0 0 255 
-0.0371691 0.0216602 0.100984 -0.00254738 0.94999 0.312237 0 0 0 255 
0.0536902 -0.0280521 0.181925 -0.270861 0.21622 -0.92071 0 0 0 255 
-0.156542 0.0193109 -0.0299886 -0.722633 -0.280993 0.622381 0 0 0 255 
-0.0567268 -0.030085 0.2376 0.138832 0.138248 0.975459 0 0 0 255 
-0.130975 -0.337753 0.139943 -0.959687 -0.137122 0.2026 0 0 0 255 
-0.118706 0.00700864 0.091197 0.947582 -0.21142 -0.227141 0 0 0 255 
0.0177042 0.17954 -0.0460737 -0.00188801 -0.924428 -0.294065 0 0 0 255 
-0.061979 0.174622 -0.0303052 0.0389163 -0.967398 -0.20233 0 0 0 255 
-0.0234213 -0.0633113 -0.114844 -0.0735188 0.975187 0.0292653 0 0 0 255 
0.0549426 0.372614 -0.0163769 0.0477593 0.92579 0.317738 0 0 0 255 
0.0147231 0.0667511 -0.0192936 0.00277058 0.931617 0.363414 0 0 0 255 
0.0197638 -0.00399497 0.141707 -0.00990413 -0.921071 -0.388835 0 0 0 255 
0.182 -0.282847 0.0542958 -0.311771 0.199258 -0.918265 0 0 0 255 
0.184903 0.0126313 0.114059 0.688533 0.388995 -0.163019 0 0 0 255 
0.111166 0.112312 -0.068227 0.975436 -0.0596876 -0.0845233 0 0 0 255 
-0.18344 0.224129 0.0275821 -0.888561 -0.274255 0.342945 0 0 0 255 
-0.10152 -0.315222 0.141655 0.955867 -0.0397978 -0.0776639 0 0 0 255 
-0.153222 0.257013 0.0278516 0.765469 -0.291526 0.312146 0 0 0 255 
-0.0948615 0.347488 0.0137934 0.120716 -0.908715 -0.0400595 0 0 0 255 
0.16063 0.00408193 0.0637204 0.0933238 -0.932279 -0.346286 0 0 0 255 
0.00657375 0.0158721 0.118013 0.00196002 0.940339 0.338866 0 0 0 255 
-0.169279 0.129561 -0.000479141 -0.845453 -0.226114 0.465098 0 0 0 255 
-0.110834 -0.208334 0.132052 0.644412 -0.621798 -0.355993 0 0 0 255 
-0.148583 -0.226401 -0.13495 -0.15121 -0.463191 0.847658 0 0 0 255 
-0.00795153 -0.00510433 0.14569 -0.0238552 -0.915782 -0.400835 0 0 0 255 
-0.0693447 0.0319345 0.04734 -0.00689498 -0.924892 -0.379445 0 0 0 255 
0.145935 0.0152013 0.118072 0.00954704 0.944967 0.326433 0 0 0 255 
-0.0715196 -0.0104392 0.190785 0.00306535 0.945906 0.32431 0 0 0 255 
-0.134659 0.106703 -0.0191549 0.936044 0.150241 -0.294154 0 0 0 255 
-0.0782626 -0.0160365 0.20802 -0.0104262 0.945853 0.324094 0 0 0 255 
0.0908159 0.0391963 -0.0751995 0.0140526 -0.402122 0.894151 0 0 0 255 
0.0622615 -0.145183 -0.16499 -0.750205 -0.295331 0.583718 0 0 0 255 
-0.108717 0.0277981 0.0579555 0.113964 -0.913994 -0.362546 0 0 0 255 
0.131089 0.322267 -0.0299988 0.802052 -0.020055 -0.572314 0 0 0 255 
-0.0363033 0.0660393 -0.0179425 0.000522597 0.933251 0.359195 0 0 0 255 
0.0196892 -0.0389416 0.204539 0.251443 -0.432217 0.865205 0 0 0 255 
-0.0591915 -0.180971 0.152631 -0.204492 -0.0850139 -0.931821 0 0 0 255 
0.186821 -0.112517 0.101273 0.297009 0.344198 -0.878567 0 0 0 255 
-0.173616 0.34484 0.0532302 0.893813 0.326285 0.0743619 0 0 0 255 
0.13085 0.0132985 0.0379581 -0.332732 -0.883315 -0.200177 0 0 0 255 
-0.155401 -0.0690355 -0.0900444 -0.705907 0.291681 -0.631987 0 0 0 255 
-0.0980439 -0.0744114 0.226926 0.574199 -0.341681 0.726613 0 0 0 255 
-0.0518693 0.0417472 0.0450072 0.00351265 0.932452 0.361146 0 0 0 255 
-0.163638 -0.252426 -0.165663 -0.965956 -0.0929044 0.0147909 0 0 0 255 
0.0453376 0.0272911 0.0840908 -0.0091393 0.95208 0.305661 0 0 0 255 
0.098692 0.295223 -0.0289344 -0.644926 0.643579 0.268603 0 0 0 255 
-0.162575 0.26908 0.0448985 0.733719 -0.0116805 0.637298 0 0 0 255 
-0.182787 0.27107 0.0509911 -0.298716 -0.302535 0.889129 0 0 0 255 
0.00479923 -0.012044 0.194741 -0.00277854 0.949485 0.313633 0 0 0 255 
0.106904 0.283432 -0.0444875 -0.236679 0.207451 -0.924456 0 0 0 255 
0.196458 -0.022379 0.148037 0.796219 0.200254 -0.552812 0 0 0 255 
-0.105634 -0.307588 0.154034 0.565261 -0.215366 0.777392 0 0 0 255 
-0.126557 -0.104986 0.19454 -0.945713 0.12643 -0.280313 0 0 0 255 
-0.159615 -0.0384059 -0.0687938 -0.960174 0.0806603 -0.224885 0 0 0 255 
0.000608318 -0.0470653 0.206598 0.244731 -0.492604 0.832173 0 0 0 255 
0.204795 -0.296778 0.0673362 0.952109 -0.0320131 0.21526 0 0 0 255 
0.0674324 -0.0464624 -0.119574 -0.764756 -0.108463 0.528009 0 0 0 255 
0.0717022 0.0401616 -0.0888904 -0.939203 -0.0303318 0.310268 0 0 0 255 
0.095932 0.25274 -0.0279852 -0.828427 -0.0739146 0.536492 0 0 0 255 
0.0840614 -0.0448237 -0.147166 0.294561 0.376856 -0.875217 0 0 0 255 
-0.120297 0.0442391 0.0132741 -0.0168628 -0.908227 -0.392731 0 0 0 255 
0.0881453 -0.108028 -0.172462 0.728414 0.275281 -0.618072 0 0 0 255 
0.0821238 0.147112 -0.0577518 -0.95654 0.0217003 0.228946 0 0 0 255 
-0.101394 -0.285786 0.14159 0.867021 0.0537733 -0.459516 0 0 0 255 
-0.00872349 0.0621279 -0.0354996 -0.00790295 -0.927219 -0.372579 0 0 0 255 
0.178019 -0.220369 0.067538 -0.293352 0.172687 -0.935683 0 0 0 255 
-0.111041 -0.192019 0.10159 0.892814 -0.429991 -0.0559115 0 0 0 255 
0.0868093 -0.111578 -0.127953 -0.158115 -0.925221 0.0845835 0 0 0 255 
-0.149424 0.336141 0.0382271 0.379291 -0.723597 0.454494 0 0 0 255 
0.167994 -0.0152039 0.177484 -0.025537 -0.904509 0.383711 0 0 0 255 
-0.148563 0.127162 -0.0234822 0.242111 0.295682 -0.917713 0 0 0 255 
-0.0541315 -0.0667312 0.206776 0.129226 -0.841151 -0.0872225 0 0 0 255 
-0.104062 -0.261247 0.141583 0.74291 0.0803648 -0.624691 0 0 0 255 
0.0600244 -0.0787036 -0.146176 -0.89971 -0.272843 -0.250383 0 0 0 255 
-0.18996 0.313244 0.0333551 -0.213804 0.200371 -0.944775 0 0 0 255 
-0.13342 0.0130929 -0.028682 0.612918 -0.371378 0.651079 0 0 0 255 
-0.0983425 0.0497797 -0.00239449 -0.0343938 -0.910319 -0.399011 0 0 0 255 
-0.156291 -0.23081 -0.170429 -0.537489 0.354509 -0.759249 0 0 0 255 
0.0631324 0.000664419 0.158637 -0.0100734 0.945162 0.326266 0 0 0 255 
0.0731824 -0.227426 -0.208482 -0.0180452 -0.706587 0.655969 0 0 0 255 
-0.0956763 0.0457655 0.036158 0.0169506 0.923354 0.383494 0 0 0 255 
-0.105355 -0.189609 0.18769 0.376811 -0.289829 0.86113 0 0 0 255 
0.107911 -0.105892 -0.094857 0.485039 0.832204 0.111089 0 0 0 255 
0.175365 -0.180616 0.0569471 0.502629 -0.441233 -0.662555 0 0 0 255 
-0.162413 -0.254109 -0.160551 -0.858679 -0.429239 0.243925 0 0 0 255 
-0.133529 -0.167021 0.0117772 -0.189178 -0.930624 -0.298633 0 0 0 255 
0.0820456 -0.180826 -0.213661 0.596152 0.350626 -0.714847 0 0 0 255 
-0.0667489 0.358069 0.0118748 0.254294 0.00898011 0.919562 0 0 0 255 
0.0954455 -0.0658892 -0.129148 0.892692 -0.188531 0.349297 0 0 0 255 
-0.0332131 -0.0371604 0.202433 -0.385499 0.161736 -0.899897 0 0 0 255 
-0.121628 -0.339693 0.122281 -0.335909 0.120975 -0.901594 0 0 0 255 
-0.105109 -0.152163 0.200446 0.344763 -0.323283 0.874037 0 0 0 255 
0.128572 -0.163601 0.126331 0.206217 0.334959 0.866815 0 0 0 255 
0.0827655 -0.147294 -0.19648 0.553237 0.364024 -0.739121 0 0 0 255 
0.109603 0.143204 -0.0456774 0.643586 -0.253117 0.713306 0 0 0 255 
0.052042 -0.16282 0.137901 -0.0275635 0.941721 0.285524 0 0 0 255 
-0.0161013 -0.00971337 0.188477 0.00777105 0.947392 0.31989 0 0 0 255 
0.0782294 0.00160777 0.156467 -0.00626849 0.943235 0.331831 0 0 0 255 
-0.00857922 -0.168329 0.149613 -0.0888442 0.965964 0.000652924 0 0 0 255 
-0.124379 -0.165263 0.0138474 0.595686 -0.711383 -0.331038 0 0 0 255 
0.146025 4.26114e-006 0.0934541 -0.813577 -0.530306 0.158582 0 0 0 255 
-0.148117 -0.0725577 -0.0602775 -0.402416 -0.363815 0.838187 0 0 0 255 
0.00337993 -0.169103 0.139837 -0.218079 0.711302 -0.640673 0 0 0 255 
-0.0890195 0.0380142 0.0556581 0.0119581 0.93029 0.365897 0 0 0 255 
-0.113709 0.0237491 0.0681118 0.125554 -0.915575 -0.364771 0 0 0 255 
-0.183576 0.348383 0.0434393 0.203761 0.702005 -0.656166 0 0 0 255 
-0.133898 0.0917333 -0.0254332 0.846345 0.225765 -0.469829 0 0 0 255 
-0.162066 -0.215324 -0.14261 -0.943073 -0.122463 0.272163 0 0 0 255 
-0.159264 -0.0337209 -0.0684612 -0.932679 0.118338 -0.327048 0 0 0 255 
0.200156 -0.256838 0.0843453 0.747 -0.136148 0.624408 0 0 0 255 
-0.122073 0.0278039 0.0557301 0.508646 -0.761718 -0.367258 0 0 0 255 
-0.127373 -0.12348 0.18923 -0.970142 0.0971342 -0.19181 0 0 0 255 
0.142385 0.0278735 0.0828227 0.0301527 0.942876 0.330626 0 0 0 255 
-0.138588 0.0458179 0.0364718 -0.0272604 0.924194 0.37949 0 0 0 255 
-0.146333 -0.170263 -0.144199 -0.0641754 0.441189 -0.891777 0 0 0 255 
-0.000624201 -0.0413395 0.190556 -0.19388 0.123609 -0.971647 0 0 0 255 
0.0379466 0.0540402 -0.0130651 0.00642654 -0.940039 -0.339875 0 0 0 255 
-0.138235 0.344225 0.0358829 0.363314 -0.00982291 0.895351 0 0 0 255 
-0.026843 0.0453419 0.0356251 0.00672042 0.933313 0.359 0 0 0 255 
-0.116994 0.00103365 0.15811 -0.0383878 0.943306 0.328585 0 0 0 255 
0.0473254 -0.050315 0.192971 0.197141 -0.809598 0.474336 0 0 0 255 
0.132785 -0.00140267 0.137573 -0.143015 -0.939457 -0.269858 0 0 0 255 
-0.0754869 0.289628 -0.00973078 -0.190573 0.952718 -0.185576 0 0 0 255 
0.150082 -0.152103 0.0230784 -0.290451 0.838518 0.405447 0 0 0 255 
0.166588 -0.0204127 0.139264 -0.656216 -0.596656 -0.159706 0 0 0 255 
0.00832988 -0.0300559 0.21227 0.17974 -0.798881 0.469741 0 0 0 255 
-0.132171 -0.0486877 -0.0820643 0.529349 0.325773 -0.772419 0 0 0 255 
0.0680302 -0.00611612 -0.115472 -0.953077 0.128177 -0.198632 0 0 0 255 
-0.107617 -0.305674 0.131121 0.653552 0.104172 -0.721102 0 0 0 255 
-0.166509 0.247162 0.0443215 0.287243 -0.206775 0.915031 0 0 0 255 
-0.139101 0.348841 0.0347527 0.23891 0.445989 0.83664 0 0 0 255 
-0.106839 0.0490069 -0.000159695 -0.0491446 -0.896614 -0.423518 0 0 0 255 
0.0522976 -0.0258738 0.219962 0.22807 -0.267529 0.872745 0 0 0 255 
0.0892799 0.0333617 -0.114318 0.17885 0.339388 -0.920812 0 0 0 255 
0.195979 -0.179178 0.107842 0.712511 -0.2061 0.658016 0 0 0 255 
-0.12817 -0.0298814 0.180533 -0.935405 -0.310491 0.148778 0 0 0 255 
0.182785 -0.00602187 0.125178 0.816589 -0.463394 -0.322238 0 0 0 255 
0.116518 0.325298 -0.0382075 0.0393389 0.127536 -0.973426 0 0 0 255 
-0.14946 0.337053 0.0311539 0.0251625 -0.816298 -0.380228 0 0 0 255 
0.0885954 0.208172 -0.0438656 -0.866722 0.295145 0.193705 0 0 0 255 
-0.0710437 -0.175138 0.157549 -0.187752 0.711021 -0.589215 0 0 0 255 
-0.138221 0.0300016 -0.0211342 0.492743 -0.553596 0.538095 0 0 0 255 
0.199746 -0.192529 0.0865413 0.929301 0.110346 -0.311912 0 0 0 255 
-0.153972 0.0194753 0.093816 -0.718338 0.497876 0.396697 0 0 0 255 
-0.127485 -0.0726923 -0.0907741 0.245002 0.718814 -0.447253 0 0 0 255 
0.143737 -0.0394748 0.153213 -0.374993 0.0791999 -0.889129 0 0 0 255 
-0.16359 0.229713 0.0392392 0.254759 -0.238103 0.920489 0 0 0 255 
0.0910476 -0.152078 -0.18108 0.988195 -0.0551473 0.00155 0 0 0 255 
-0.0750084 -0.051941 0.207464 -0.227992 0.365383 -0.89957 0 0 0 255 
0.123935 0.384489 -0.0171611 0.0198146 0.918148 0.0299267 0 0 0 255 
-0.129077 0.279811 0.00768725 -0.247878 0.915941 -0.0944612 0 0 0 255 
-0.122463 -0.091067 -0.0812639 0.612009 -0.592369 0.438145 0 0 0 255 
0.11315 0.0167228 0.114747 0.00317493 0.938352 0.345594 0 0 0 255 
-0.173515 0.239207 0.0114865 -0.216756 0.25658 -0.931917 0 0 0 255 
-0.15659 -0.0629271 -0.0857373 -0.781089 0.245901 -0.548721 0 0 0 255 
-0.203915 0.334736 0.043816 -0.817771 0.0942653 -0.534933 0 0 0 255 
-0.0052907 -0.0280868 0.19593 -0.198833 -0.0719353 -0.928454 0 0 0 255 
-0.117575 0.0680551 -0.0264266 -0.383781 0.897162 -0.0826091 0 0 0 255 
-0.116498 -0.174081 0.0781821 0.587194 0.759364 0.214725 0 0 0 255 
-0.046391 0.286256 -0.00670964 0.198058 0.24134 0.939315 0 0 0 255 
0.118991 0.382925 -0.0254053 -0.225435 0.818957 -0.399003 0 0 0 255 
0.133856 0.0227149 0.0124748 0.0307089 -0.944973 -0.324494 0 0 0 255 
0.174798 -0.271728 0.0807833 -0.708458 -0.230627 0.645553 0 0 0 255 
0.164612 0.0223878 0.0974436 0.0915235 0.940099 0.287278 0 0 0 255 
0.0974221 0.0332671 0.0679077 -0.00937373 0.946782 0.321682 0 0 0 255 
-0.154094 -0.256781 -0.15367 -0.314777 -0.67195 0.582385 0 0 0 255 
0.036497 0.0103356 0.106044 -0.00398088 -0.935138 -0.353535 0 0 0 255 
-0.0106977 0.178654 -0.0406968 0.0306428 -0.934075 -0.187431 0 0 0 255 
-0.0995268 0.0313607 0.0490944 0.124234 -0.900997 -0.367378 0 0 0 255 
-0.0822459 -0.0883896 -0.09581 0.125044 -0.972743 0.128757 0 0 0 255 
0.101854 0.320499 -0.0255453 -0.954479 0.113828 0.0603294 0 0 0 255 
0.112578 0.188115 -0.0602135 0.65997 0.115334 -0.733729 0 0 0 255 
-0.159362 0.0408447 0.00227914 -0.978608 -0.0461742 -0.167308 0 0 0 255 
0.0723146 0.355978 -0.0139914 -0.0315029 -0.709258 0.631493 0 0 0 255 
-0.147679 0.169636 -0.0104579 -0.0453001 -0.0398452 -0.98624 0 0 0 255 
0.0573722 0.182487 -0.0416093 0.0190088 -0.544368 0.781383 0 0 0 255 
-0.00634788 -0.0167498 0.179114 -0.0123732 -0.933875 -0.35424 0 0 0 255 
0.0752611 0.00907041 -0.121411 -0.552325 0.347745 -0.755595 0 0 0 255 
0.0916974 0.239283 -0.0445562 -0.946935 0.131336 -0.229376 0 0 0 255 
-0.0926214 0.0501168 -0.00335271 -0.0167414 -0.924231 -0.372914 0 0 0 255 
-0.146326 0.157589 0.0139748 0.597365 -0.152486 0.771236 0 0 0 255 
-0.111649 -0.019513 0.136518 0.884282 -0.293481 -0.247734 0 0 0 255 
-0.142172 -0.157448 -0.00153017 -0.791472 -0.563946 -0.13104 0 0 0 255 
-0.160734 0.0195997 0.0654229 -0.972608 -0.127896 0.121858 0 0 0 255 
0.106847 0.0217443 0.10129 0.00505387 0.938835 0.344195 0 0 0 255 
0.0661069 -0.0496257 0.186293 0.0131728 -0.975195 0.150138 0 0 0 255 
-0.153793 -0.118777 -0.115012 -0.582854 0.356219 -0.704302 0 0 0 255 
0.0905752 0.0552249 -0.0514169 -0.849455 -0.478618 0.204683 0 0 0 255 
0.00536735 0.0832641 -0.0673309 -0.0285066 0.932698 -0.156067 0 0 0 255 
0.00245896 -0.0105737 0.190468 -0.00177754 0.948648 0.316143 0 0 0 255 
-0.0682226 -0.0671465 0.203637 0.0412897 -0.733744 -0.6467 0 0 0 255 
-0.163147 0.189095 -0.00556448 -0.073543 0.290802 -0.94997 0 0 0 255 
0.0805592 0.0515658 -0.0743177 -0.601324 -0.283506 0.739305 0 0 0 255 
